ncols         129
nrows         91
xllcorner     -80.95
yllcorner     32.02
cellsize      0.05
NODATA_value   -99.
-99.0 -99.0 -99.0 -99.0 -99.0 -99.0 -99.0 -99.0 -99.0 -99.0 -99.0 -99.0 -99.0 -99.0 -99.0 -99.0 -99.0 -99.0 -99.0 -99.0 -99.0 -99.0 -99.0 -99.0 -99.0 -99.0 -99.0 -99.0 -99.0 -99.0 -99.0 -99.0 -99.0 -99.0 -99.0 -99.0 -99.0 -99.0 -99.0 -99.0 -99.0 -99.0 -99.0 -99.0 -99.0 -99.0 -99.0 -99.0 -99.0 -99.0 -99.0 -99.0 -99.0 -99.0 -99.0 -99.0 -99.0 -99.0 -99.0 -99.0 -99.0 -99.0 -99.0 -99.0 -99.0 -99.0 -99.0 -99.0 -99.0 -99.0 -99.0 -99.0 -99.0 -99.0 -99.0 -99.0 -99.0 -99.0 -99.0 -99.0 -99.0 -99.0 -99.0 -99.0 -99.0 -99.0 -99.0 -99.0 -99.0 -99.0 -99.0 -99.0 -99.0 -99.0 -99.0 -99.0 1.97 1.97 1.97 2.09 2.32 2.55 2.78 3.01 3.24 3.47 3.7 3.93 4.15 4.33 4.47 4.61 4.75 4.88 5.02 5.16 5.3 5.44 5.57 5.7 5.83 5.96 6.1 6.23 6.37 6.5 6.63 6.77 6.9
-99.0 -99.0 -99.0 -99.0 -99.0 -99.0 -99.0 -99.0 -99.0 -99.0 -99.0 -99.0 -99.0 -99.0 -99.0 -99.0 -99.0 -99.0 -99.0 -99.0 -99.0 -99.0 -99.0 -99.0 -99.0 -99.0 -99.0 -99.0 -99.0 -99.0 -99.0 -99.0 -99.0 -99.0 -99.0 -99.0 -99.0 -99.0 -99.0 -99.0 -99.0 -99.0 -99.0 -99.0 -99.0 -99.0 -99.0 -99.0 -99.0 -99.0 -99.0 -99.0 -99.0 -99.0 -99.0 -99.0 -99.0 -99.0 -99.0 -99.0 -99.0 -99.0 -99.0 -99.0 -99.0 -99.0 -99.0 -99.0 -99.0 -99.0 -99.0 -99.0 -99.0 -99.0 -99.0 -99.0 -99.0 -99.0 -99.0 -99.0 -99.0 -99.0 -99.0 -99.0 -99.0 -99.0 -99.0 -99.0 -99.0 -99.0 -99.0 -99.0 -99.0 -99.0 -99.0 -99.0 -99.0 1.99 1.99 2.11 2.34 2.57 2.8 3.03 3.26 3.49 3.72 3.95 4.19 4.35 4.49 4.63 4.77 4.9 5.04 5.18 5.32 5.46 5.59 5.73 5.86 6.0 6.13 6.27 6.4 6.53 6.67 6.8 6.94
-99.0 -99.0 -99.0 -99.0 -99.0 -99.0 -99.0 -99.0 -99.0 -99.0 -99.0 -99.0 -99.0 -99.0 -99.0 -99.0 -99.0 -99.0 -99.0 -99.0 -99.0 -99.0 -99.0 -99.0 -99.0 -99.0 -99.0 -99.0 -99.0 -99.0 -99.0 -99.0 -99.0 -99.0 -99.0 -99.0 -99.0 -99.0 -99.0 -99.0 -99.0 -99.0 -99.0 -99.0 -99.0 -99.0 -99.0 -99.0 -99.0 -99.0 -99.0 -99.0 -99.0 -99.0 -99.0 -99.0 -99.0 -99.0 -99.0 -99.0 -99.0 -99.0 -99.0 -99.0 -99.0 -99.0 -99.0 -99.0 -99.0 -99.0 -99.0 -99.0 -99.0 -99.0 -99.0 -99.0 -99.0 -99.0 -99.0 -99.0 -99.0 -99.0 -99.0 -99.0 -99.0 -99.0 -99.0 -99.0 -99.0 -99.0 -99.0 -99.0 -99.0 -99.0 -99.0 -99.0 -99.0 2.2 2.2 2.31 2.54 2.78 3.01 3.24 3.47 3.7 3.93 4.16 4.25 4.35 4.53 4.67 4.8 4.94 5.08 5.22 5.36 5.49 5.63 5.77 5.9 6.04 6.17 6.3 6.44 6.57 6.71 6.84 6.97
-99.0 -99.0 -99.0 -99.0 -99.0 -99.0 -99.0 -99.0 -99.0 -99.0 -99.0 -99.0 -99.0 -99.0 -99.0 -99.0 -99.0 -99.0 -99.0 -99.0 -99.0 -99.0 -99.0 -99.0 -99.0 -99.0 -99.0 -99.0 -99.0 -99.0 -99.0 -99.0 -99.0 -99.0 -99.0 -99.0 -99.0 -99.0 -99.0 -99.0 -99.0 -99.0 -99.0 -99.0 -99.0 -99.0 -99.0 -99.0 -99.0 -99.0 -99.0 -99.0 -99.0 -99.0 -99.0 -99.0 -99.0 -99.0 -99.0 -99.0 -99.0 -99.0 -99.0 -99.0 -99.0 -99.0 -99.0 -99.0 -99.0 -99.0 -99.0 -99.0 -99.0 -99.0 -99.0 -99.0 -99.0 -99.0 -99.0 -99.0 -99.0 -99.0 -99.0 -99.0 -99.0 -99.0 -99.0 -99.0 -99.0 -99.0 -99.0 -99.0 -99.0 -99.0 -99.0 -99.0 -99.0 -99.0 2.4 2.52 2.75 2.98 3.21 3.44 3.68 3.91 4.14 4.23 4.23 4.33 4.53 4.7 4.84 4.98 5.12 5.26 5.39 5.53 5.67 5.81 5.94 6.07 6.21 6.34 6.48 6.61 6.74 6.87 6.99
-99.0 -99.0 -99.0 -99.0 -99.0 -99.0 -99.0 -99.0 -99.0 -99.0 -99.0 -99.0 -99.0 -99.0 -99.0 -99.0 -99.0 -99.0 -99.0 -99.0 -99.0 -99.0 -99.0 -99.0 -99.0 -99.0 -99.0 -99.0 -99.0 -99.0 -99.0 -99.0 -99.0 -99.0 -99.0 -99.0 -99.0 -99.0 -99.0 -99.0 -99.0 -99.0 -99.0 -99.0 -99.0 -99.0 -99.0 -99.0 -99.0 -99.0 -99.0 -99.0 -99.0 -99.0 -99.0 -99.0 -99.0 -99.0 -99.0 -99.0 -99.0 -99.0 -99.0 -99.0 -99.0 -99.0 -99.0 -99.0 -99.0 -99.0 -99.0 -99.0 -99.0 -99.0 -99.0 -99.0 -99.0 -99.0 -99.0 -99.0 -99.0 -99.0 -99.0 -99.0 -99.0 -99.0 -99.0 -99.0 -99.0 -99.0 -99.0 -99.0 -99.0 -99.0 2.61 2.61 2.61 -99.0 -99.0 2.73 2.96 3.19 3.42 3.65 3.88 4.11 4.21 4.21 4.21 4.31 4.51 4.71 4.88 5.02 5.16 5.29 5.43 5.57 5.71 5.84 5.98 6.11 6.25 6.38 6.51 6.65 6.77 6.89 7.01
-99.0 -99.0 -99.0 -99.0 -99.0 -99.0 -99.0 -99.0 -99.0 -99.0 -99.0 -99.0 -99.0 -99.0 -99.0 -99.0 -99.0 -99.0 -99.0 -99.0 -99.0 -99.0 -99.0 -99.0 -99.0 -99.0 -99.0 -99.0 -99.0 -99.0 -99.0 -99.0 -99.0 -99.0 -99.0 -99.0 -99.0 -99.0 -99.0 -99.0 -99.0 -99.0 -99.0 -99.0 -99.0 -99.0 -99.0 -99.0 -99.0 -99.0 -99.0 -99.0 -99.0 -99.0 -99.0 -99.0 -99.0 -99.0 -99.0 -99.0 -99.0 -99.0 -99.0 -99.0 -99.0 -99.0 -99.0 -99.0 -99.0 -99.0 -99.0 -99.0 -99.0 -99.0 -99.0 -99.0 -99.0 -99.0 -99.0 -99.0 -99.0 -99.0 -99.0 -99.0 -99.0 -99.0 -99.0 -99.0 -99.0 -99.0 -99.0 -99.0 -99.0 -99.0 2.82 2.82 2.82 -99.0 -99.0 2.93 3.17 3.4 3.63 3.86 4.09 4.18 4.18 4.18 4.18 4.28 4.48 4.68 4.88 5.06 5.19 5.33 5.47 5.61 5.75 5.88 6.02 6.15 6.28 6.42 6.55 6.68 6.8 6.91 7.03
-99.0 -99.0 -99.0 -99.0 -99.0 -99.0 -99.0 -99.0 -99.0 -99.0 -99.0 -99.0 -99.0 -99.0 -99.0 -99.0 -99.0 -99.0 -99.0 -99.0 -99.0 -99.0 -99.0 -99.0 -99.0 -99.0 -99.0 -99.0 -99.0 -99.0 -99.0 -99.0 -99.0 -99.0 -99.0 -99.0 -99.0 -99.0 -99.0 -99.0 -99.0 -99.0 -99.0 -99.0 -99.0 -99.0 -99.0 -99.0 -99.0 -99.0 -99.0 -99.0 -99.0 -99.0 -99.0 -99.0 -99.0 -99.0 -99.0 -99.0 -99.0 -99.0 -99.0 -99.0 -99.0 -99.0 -99.0 -99.0 -99.0 -99.0 -99.0 -99.0 -99.0 -99.0 -99.0 -99.0 -99.0 -99.0 -99.0 -99.0 -99.0 -99.0 -99.0 3.0 3.03 3.03 -99.0 -99.0 -99.0 -99.0 -99.0 -99.0 -99.0 -99.0 3.03 3.03 3.03 3.03 3.03 3.14 3.37 3.6 3.83 4.07 4.16 4.16 4.16 4.16 4.16 4.26 4.46 4.66 4.86 5.06 5.23 5.37 5.51 5.65 5.78 5.92 6.05 6.19 6.32 6.46 6.58 6.7 6.82 6.94 7.05
-99.0 -99.0 -99.0 -99.0 -99.0 -99.0 -99.0 -99.0 -99.0 -99.0 -99.0 -99.0 -99.0 -99.0 -99.0 -99.0 -99.0 -99.0 -99.0 -99.0 -99.0 -99.0 -99.0 -99.0 -99.0 -99.0 -99.0 -99.0 -99.0 -99.0 -99.0 -99.0 -99.0 -99.0 -99.0 -99.0 -99.0 -99.0 -99.0 -99.0 -99.0 -99.0 -99.0 -99.0 -99.0 -99.0 -99.0 -99.0 -99.0 -99.0 -99.0 -99.0 -99.0 -99.0 -99.0 -99.0 -99.0 -99.0 -99.0 -99.0 -99.0 -99.0 -99.0 -99.0 -99.0 -99.0 -99.0 -99.0 -99.0 -99.0 -99.0 -99.0 -99.0 -99.0 -99.0 -99.0 -99.0 -99.0 -99.0 -99.0 -99.0 -99.0 -99.0 3.16 3.21 3.23 -99.0 -99.0 -99.0 3.23 3.23 3.23 3.23 3.23 3.23 3.23 3.23 3.23 3.23 3.35 3.58 3.81 4.04 4.13 4.13 4.13 4.13 4.13 4.13 4.23 4.43 4.63 4.83 5.03 5.23 5.41 5.55 5.68 5.82 5.96 6.09 6.23 6.36 6.49 6.6 6.72 6.84 6.96 7.08
-99.0 -99.0 -99.0 -99.0 -99.0 -99.0 -99.0 -99.0 -99.0 -99.0 -99.0 -99.0 -99.0 -99.0 -99.0 -99.0 -99.0 -99.0 -99.0 -99.0 -99.0 -99.0 -99.0 -99.0 -99.0 -99.0 -99.0 -99.0 -99.0 -99.0 -99.0 -99.0 -99.0 -99.0 -99.0 -99.0 -99.0 -99.0 -99.0 -99.0 -99.0 -99.0 -99.0 -99.0 -99.0 -99.0 -99.0 -99.0 -99.0 -99.0 -99.0 -99.0 -99.0 -99.0 -99.0 -99.0 -99.0 -99.0 -99.0 -99.0 -99.0 -99.0 -99.0 -99.0 -99.0 -99.0 -99.0 -99.0 -99.0 -99.0 -99.0 -99.0 -99.0 -99.0 -99.0 -99.0 -99.0 -99.0 -99.0 -99.0 -99.0 -99.0 -99.0 3.33 3.37 3.41 -99.0 -99.0 -99.0 3.44 3.44 3.44 3.44 3.44 3.44 3.44 3.44 3.44 3.44 3.56 3.79 4.02 4.11 4.11 4.11 4.11 4.11 4.11 4.11 4.21 4.41 4.61 4.81 5.01 5.21 5.41 5.58 5.72 5.86 6.0 6.13 6.26 6.39 6.51 6.63 6.74 6.86 6.98 7.1
-99.0 -99.0 -99.0 -99.0 -99.0 -99.0 -99.0 -99.0 -99.0 -99.0 -99.0 -99.0 -99.0 -99.0 -99.0 -99.0 -99.0 -99.0 -99.0 -99.0 -99.0 -99.0 -99.0 -99.0 -99.0 -99.0 -99.0 -99.0 -99.0 -99.0 -99.0 -99.0 -99.0 -99.0 -99.0 -99.0 -99.0 -99.0 -99.0 -99.0 -99.0 -99.0 -99.0 -99.0 -99.0 -99.0 -99.0 -99.0 -99.0 -99.0 -99.0 -99.0 -99.0 -99.0 -99.0 -99.0 -99.0 -99.0 -99.0 -99.0 -99.0 -99.0 -99.0 -99.0 -99.0 -99.0 -99.0 -99.0 -99.0 -99.0 -99.0 -99.0 -99.0 -99.0 -99.0 -99.0 -99.0 -99.0 -99.0 -99.0 -99.0 -99.0 -99.0 3.49 3.53 3.58 3.62 -99.0 -99.0 3.65 3.65 3.65 3.65 3.65 3.65 3.65 3.65 3.65 3.65 3.76 3.99 4.09 4.09 4.09 4.09 4.09 4.09 4.09 4.09 4.19 4.39 4.59 4.79 4.99 5.19 5.39 5.59 5.76 5.9 6.03 6.17 6.29 6.41 6.53 6.65 6.77 6.88 7.0 7.12
-99.0 -99.0 -99.0 -99.0 -99.0 -99.0 -99.0 -99.0 -99.0 -99.0 -99.0 -99.0 -99.0 -99.0 -99.0 -99.0 -99.0 -99.0 -99.0 -99.0 -99.0 -99.0 -99.0 -99.0 -99.0 -99.0 -99.0 -99.0 -99.0 -99.0 -99.0 -99.0 -99.0 -99.0 -99.0 -99.0 -99.0 -99.0 -99.0 -99.0 -99.0 -99.0 -99.0 -99.0 -99.0 -99.0 -99.0 -99.0 -99.0 -99.0 -99.0 -99.0 -99.0 -99.0 -99.0 -99.0 -99.0 -99.0 -99.0 -99.0 -99.0 -99.0 -99.0 -99.0 -99.0 -99.0 -99.0 -99.0 -99.0 -99.0 -99.0 -99.0 -99.0 -99.0 -99.0 -99.0 -99.0 -99.0 -99.0 -99.0 -99.0 -99.0 -99.0 3.65 3.7 3.74 3.78 3.83 3.85 3.85 3.85 3.85 3.85 3.85 3.85 3.85 3.85 3.85 3.85 3.97 4.06 4.06 4.06 4.06 4.06 4.06 4.06 4.06 4.06 4.16 4.36 4.56 4.76 4.96 5.16 5.36 5.56 5.76 5.94 6.07 6.2 6.32 6.43 6.55 6.67 6.79 6.91 7.02 7.14
-99.0 -99.0 -99.0 -99.0 -99.0 -99.0 -99.0 -99.0 -99.0 -99.0 -99.0 -99.0 -99.0 -99.0 -99.0 -99.0 -99.0 -99.0 -99.0 -99.0 -99.0 -99.0 -99.0 -99.0 -99.0 -99.0 -99.0 -99.0 -99.0 -99.0 -99.0 -99.0 -99.0 -99.0 -99.0 -99.0 -99.0 -99.0 -99.0 -99.0 -99.0 -99.0 -99.0 -99.0 -99.0 -99.0 -99.0 -99.0 -99.0 -99.0 -99.0 -99.0 -99.0 -99.0 -99.0 -99.0 -99.0 -99.0 -99.0 -99.0 -99.0 -99.0 -99.0 -99.0 -99.0 -99.0 -99.0 -99.0 -99.0 -99.0 -99.0 -99.0 -99.0 -99.0 -99.0 -99.0 -99.0 -99.0 -99.0 -99.0 -99.0 -99.0 -99.0 -99.0 3.83 3.88 3.92 3.97 4.01 4.04 4.04 4.04 4.04 4.04 4.04 4.04 4.04 4.04 4.04 4.04 4.04 4.04 4.04 4.04 4.04 4.04 4.04 4.04 4.04 4.13 4.33 4.53 4.73 4.93 5.13 5.33 5.53 5.73 5.93 6.1 6.22 6.34 6.46 6.57 6.69 6.81 6.93 7.05 7.16
-99.0 -99.0 -99.0 -99.0 -99.0 -99.0 -99.0 -99.0 -99.0 -99.0 -99.0 -99.0 -99.0 -99.0 -99.0 -99.0 -99.0 -99.0 -99.0 -99.0 -99.0 -99.0 -99.0 -99.0 -99.0 -99.0 -99.0 -99.0 -99.0 -99.0 -99.0 -99.0 -99.0 -99.0 -99.0 -99.0 -99.0 -99.0 -99.0 -99.0 -99.0 -99.0 -99.0 -99.0 -99.0 -99.0 -99.0 -99.0 -99.0 -99.0 -99.0 -99.0 -99.0 -99.0 -99.0 -99.0 -99.0 -99.0 -99.0 -99.0 -99.0 -99.0 -99.0 -99.0 -99.0 -99.0 -99.0 -99.0 -99.0 -99.0 -99.0 -99.0 -99.0 -99.0 -99.0 -99.0 -99.0 -99.0 -99.0 -99.0 -99.0 -99.0 -99.0 3.71 3.76 3.8 3.85 3.89 3.95 3.99 3.99 3.99 3.99 3.99 3.99 3.99 3.99 3.99 3.99 3.99 3.99 3.99 3.99 3.99 3.99 3.99 3.99 3.99 3.99 4.08 4.28 4.48 4.68 4.88 5.08 5.28 5.48 5.68 5.94 6.14 6.26 6.37 6.49 6.61 6.73 6.85 6.96 7.08 7.2
-99.0 -99.0 -99.0 -99.0 -99.0 -99.0 -99.0 -99.0 -99.0 -99.0 -99.0 -99.0 -99.0 -99.0 -99.0 -99.0 -99.0 -99.0 -99.0 -99.0 -99.0 -99.0 -99.0 -99.0 -99.0 -99.0 -99.0 -99.0 -99.0 -99.0 -99.0 -99.0 -99.0 -99.0 -99.0 -99.0 -99.0 -99.0 -99.0 -99.0 -99.0 -99.0 -99.0 -99.0 -99.0 -99.0 -99.0 -99.0 -99.0 -99.0 -99.0 -99.0 -99.0 -99.0 -99.0 -99.0 -99.0 -99.0 -99.0 -99.0 -99.0 -99.0 -99.0 -99.0 -99.0 -99.0 -99.0 -99.0 -99.0 -99.0 -99.0 -99.0 -99.0 -99.0 -99.0 -99.0 -99.0 -99.0 -99.0 -99.0 -99.0 -99.0 -99.0 3.64 3.68 3.73 3.77 3.83 -99.0 -99.0 3.95 3.95 3.95 3.95 -99.0 -99.0 -99.0 3.95 3.95 3.95 3.95 3.95 3.95 3.95 3.95 3.95 3.95 3.94 3.93 4.03 4.23 4.43 4.63 4.83 5.03 5.23 5.43 5.68 5.97 6.18 6.29 6.41 6.53 6.65 6.76 6.88 7.0 7.12 7.24
-99.0 -99.0 -99.0 -99.0 -99.0 -99.0 -99.0 -99.0 -99.0 -99.0 -99.0 -99.0 -99.0 -99.0 -99.0 -99.0 -99.0 -99.0 -99.0 -99.0 -99.0 -99.0 -99.0 -99.0 -99.0 -99.0 -99.0 -99.0 -99.0 -99.0 -99.0 -99.0 -99.0 -99.0 -99.0 -99.0 -99.0 -99.0 -99.0 -99.0 -99.0 -99.0 -99.0 -99.0 -99.0 -99.0 -99.0 -99.0 -99.0 -99.0 -99.0 -99.0 -99.0 -99.0 -99.0 -99.0 -99.0 -99.0 -99.0 -99.0 -99.0 -99.0 -99.0 -99.0 -99.0 -99.0 -99.0 -99.0 -99.0 -99.0 -99.0 -99.0 -99.0 -99.0 -99.0 -99.0 -99.0 -99.0 -99.0 -99.0 -99.0 -99.0 -99.0 -99.0 -99.0 -99.0 -99.0 -99.0 -99.0 -99.0 -99.0 -99.0 -99.0 -99.0 -99.0 -99.0 3.9 3.9 3.9 3.9 3.9 -99.0 -99.0 3.9 3.9 3.9 3.9 3.89 3.88 3.98 4.18 4.38 4.58 4.78 4.98 5.18 5.43 5.72 6.01 6.22 6.33 6.45 6.56 6.68 6.8 6.92 7.04 7.15 7.27
-99.0 -99.0 -99.0 -99.0 -99.0 -99.0 -99.0 -99.0 -99.0 -99.0 -99.0 -99.0 -99.0 -99.0 -99.0 -99.0 -99.0 -99.0 -99.0 -99.0 -99.0 -99.0 -99.0 -99.0 -99.0 -99.0 -99.0 -99.0 -99.0 -99.0 -99.0 -99.0 -99.0 -99.0 -99.0 -99.0 -99.0 -99.0 -99.0 -99.0 -99.0 -99.0 -99.0 -99.0 -99.0 -99.0 -99.0 -99.0 -99.0 -99.0 -99.0 -99.0 -99.0 -99.0 -99.0 -99.0 -99.0 -99.0 -99.0 -99.0 -99.0 -99.0 -99.0 -99.0 -99.0 -99.0 -99.0 -99.0 -99.0 -99.0 -99.0 -99.0 -99.0 -99.0 -99.0 -99.0 -99.0 -99.0 -99.0 -99.0 -99.0 -99.0 -99.0 -99.0 -99.0 -99.0 -99.0 -99.0 -99.0 -99.0 -99.0 -99.0 -99.0 -99.0 -99.0 -99.0 -99.0 3.86 3.86 3.86 3.86 -99.0 -99.0 3.86 3.86 3.85 3.85 3.84 3.83 3.92 4.12 4.32 4.52 4.72 4.92 5.18 5.47 5.76 6.05 6.25 6.37 6.49 6.6 6.72 6.84 6.95 7.07 7.19 7.31
-99.0 -99.0 -99.0 -99.0 -99.0 -99.0 -99.0 -99.0 -99.0 -99.0 -99.0 -99.0 -99.0 -99.0 -99.0 -99.0 -99.0 -99.0 -99.0 -99.0 -99.0 -99.0 -99.0 -99.0 -99.0 -99.0 -99.0 -99.0 -99.0 -99.0 -99.0 -99.0 -99.0 -99.0 -99.0 -99.0 -99.0 -99.0 -99.0 -99.0 -99.0 -99.0 -99.0 -99.0 -99.0 -99.0 -99.0 -99.0 -99.0 -99.0 -99.0 -99.0 -99.0 -99.0 -99.0 -99.0 -99.0 -99.0 -99.0 -99.0 -99.0 -99.0 -99.0 -99.0 -99.0 -99.0 -99.0 -99.0 -99.0 -99.0 -99.0 -99.0 -99.0 -99.0 -99.0 -99.0 -99.0 -99.0 -99.0 -99.0 -99.0 -99.0 -99.0 -99.0 -99.0 -99.0 -99.0 -99.0 -99.0 -99.0 -99.0 -99.0 -99.0 -99.0 -99.0 -99.0 -99.0 3.82 3.82 3.82 -99.0 -99.0 -99.0 3.82 3.81 3.8 3.79 3.78 3.77 3.87 4.07 4.27 4.47 4.67 4.92 5.22 5.51 5.8 6.09 6.29 6.41 6.52 6.64 6.76 6.87 6.99 7.11 7.23 7.34
-99.0 -99.0 -99.0 -99.0 -99.0 -99.0 -99.0 -99.0 -99.0 -99.0 -99.0 -99.0 -99.0 -99.0 -99.0 -99.0 -99.0 -99.0 -99.0 -99.0 -99.0 -99.0 -99.0 -99.0 -99.0 -99.0 -99.0 -99.0 -99.0 -99.0 -99.0 -99.0 -99.0 -99.0 -99.0 -99.0 -99.0 -99.0 -99.0 -99.0 -99.0 -99.0 -99.0 -99.0 -99.0 -99.0 -99.0 -99.0 -99.0 -99.0 -99.0 -99.0 -99.0 -99.0 -99.0 -99.0 -99.0 -99.0 -99.0 -99.0 -99.0 -99.0 -99.0 -99.0 -99.0 -99.0 -99.0 -99.0 -99.0 -99.0 -99.0 -99.0 -99.0 -99.0 -99.0 -99.0 -99.0 -99.0 -99.0 -99.0 -99.0 -99.0 -99.0 -99.0 -99.0 -99.0 -99.0 -99.0 -99.0 -99.0 -99.0 -99.0 -99.0 -99.0 -99.0 -99.0 -99.0 3.77 3.77 3.77 -99.0 -99.0 -99.0 3.77 3.76 3.75 3.74 3.73 3.72 3.82 4.02 4.22 4.42 4.67 4.96 5.25 5.54 5.84 6.13 6.33 6.45 6.56 6.68 6.79 6.91 7.03 7.14 7.26 7.38
-99.0 -99.0 -99.0 -99.0 -99.0 -99.0 -99.0 -99.0 -99.0 -99.0 -99.0 -99.0 -99.0 -99.0 -99.0 -99.0 -99.0 -99.0 -99.0 -99.0 -99.0 -99.0 -99.0 -99.0 -99.0 -99.0 -99.0 -99.0 -99.0 -99.0 -99.0 -99.0 -99.0 -99.0 -99.0 -99.0 -99.0 -99.0 -99.0 -99.0 -99.0 -99.0 -99.0 -99.0 -99.0 -99.0 -99.0 -99.0 -99.0 -99.0 -99.0 -99.0 -99.0 -99.0 -99.0 -99.0 -99.0 -99.0 -99.0 -99.0 -99.0 -99.0 -99.0 -99.0 -99.0 -99.0 -99.0 -99.0 -99.0 -99.0 -99.0 -99.0 -99.0 -99.0 -99.0 -99.0 -99.0 -99.0 -99.0 -99.0 -99.0 -99.0 -99.0 -99.0 -99.0 -99.0 -99.0 -99.0 -99.0 -99.0 -99.0 -99.0 -99.0 -99.0 3.73 -99.0 3.73 3.73 3.73 3.73 3.73 3.73 3.72 3.71 3.7 3.7 3.69 3.68 3.67 3.76 3.96 4.16 4.42 4.71 5.0 5.29 5.58 5.87 6.16 6.37 6.48 6.6 6.72 6.83 6.95 7.06 7.18 7.3 7.42
-99.0 -99.0 -99.0 -99.0 -99.0 -99.0 -99.0 -99.0 -99.0 -99.0 -99.0 -99.0 -99.0 -99.0 -99.0 -99.0 -99.0 -99.0 -99.0 -99.0 -99.0 -99.0 -99.0 -99.0 -99.0 -99.0 -99.0 -99.0 -99.0 -99.0 -99.0 -99.0 -99.0 -99.0 -99.0 -99.0 -99.0 -99.0 -99.0 -99.0 -99.0 -99.0 -99.0 -99.0 -99.0 -99.0 -99.0 -99.0 -99.0 -99.0 -99.0 -99.0 -99.0 -99.0 -99.0 -99.0 -99.0 -99.0 -99.0 -99.0 -99.0 -99.0 -99.0 -99.0 -99.0 -99.0 -99.0 -99.0 -99.0 -99.0 -99.0 -99.0 -99.0 -99.0 -99.0 -99.0 -99.0 -99.0 -99.0 -99.0 -99.0 -99.0 -99.0 -99.0 -99.0 3.42 3.49 3.57 3.65 3.68 3.68 -99.0 -99.0 -99.0 -99.0 -99.0 -99.0 -99.0 3.68 3.68 3.68 3.68 3.67 3.66 3.65 3.64 3.63 3.62 3.62 3.71 3.91 4.17 4.46 4.75 5.04 5.33 5.62 5.91 6.2 6.41 6.52 6.64 6.75 6.87 6.99 7.1 7.22 7.33 7.45
-99.0 -99.0 -99.0 -99.0 -99.0 -99.0 -99.0 -99.0 -99.0 -99.0 -99.0 -99.0 -99.0 -99.0 -99.0 -99.0 -99.0 -99.0 -99.0 -99.0 -99.0 -99.0 -99.0 -99.0 -99.0 -99.0 -99.0 -99.0 -99.0 -99.0 -99.0 -99.0 -99.0 -99.0 -99.0 -99.0 -99.0 -99.0 -99.0 -99.0 -99.0 -99.0 -99.0 -99.0 -99.0 -99.0 -99.0 -99.0 -99.0 -99.0 -99.0 -99.0 -99.0 -99.0 -99.0 -99.0 -99.0 -99.0 -99.0 -99.0 -99.0 -99.0 -99.0 -99.0 -99.0 -99.0 -99.0 -99.0 -99.0 -99.0 -99.0 -99.0 -99.0 -99.0 -99.0 -99.0 -99.0 -99.0 -99.0 -99.0 -99.0 -99.0 -99.0 -99.0 -99.0 3.37 3.45 3.53 3.6 3.64 3.64 -99.0 -99.0 -99.0 -99.0 -99.0 3.64 -99.0 3.64 3.64 3.63 3.63 3.62 3.61 3.6 3.59 3.58 3.57 3.56 3.66 3.91 4.2 4.49 4.79 5.08 5.37 5.66 5.95 6.24 6.44 6.56 6.68 6.79 6.91 7.02 7.14 7.26 7.37 7.49
-99.0 -99.0 -99.0 -99.0 -99.0 -99.0 -99.0 -99.0 -99.0 -99.0 -99.0 -99.0 -99.0 -99.0 -99.0 -99.0 -99.0 -99.0 -99.0 -99.0 -99.0 -99.0 -99.0 -99.0 -99.0 -99.0 -99.0 -99.0 -99.0 -99.0 -99.0 -99.0 -99.0 -99.0 -99.0 -99.0 -99.0 -99.0 -99.0 -99.0 -99.0 -99.0 -99.0 -99.0 -99.0 -99.0 -99.0 -99.0 -99.0 -99.0 -99.0 -99.0 -99.0 -99.0 -99.0 -99.0 -99.0 -99.0 -99.0 -99.0 -99.0 -99.0 -99.0 -99.0 -99.0 -99.0 -99.0 -99.0 -99.0 -99.0 -99.0 -99.0 -99.0 -99.0 -99.0 -99.0 -99.0 -99.0 -99.0 2.88 2.95 3.03 3.11 3.18 -99.0 3.33 3.41 3.49 3.56 3.6 3.6 -99.0 -99.0 -99.0 3.6 3.6 3.6 -99.0 3.6 3.62 3.61 3.6 3.59 3.58 3.57 3.56 3.55 3.54 3.54 3.66 3.95 4.25 4.54 4.83 5.12 5.41 5.7 5.99 6.28 6.49 6.6 6.72 6.83 6.95 7.07 7.18 7.3 7.41 7.53
-99.0 -99.0 -99.0 -99.0 -99.0 -99.0 -99.0 -99.0 -99.0 -99.0 -99.0 -99.0 -99.0 -99.0 -99.0 -99.0 -99.0 -99.0 -99.0 -99.0 -99.0 -99.0 -99.0 -99.0 -99.0 -99.0 -99.0 -99.0 -99.0 -99.0 -99.0 -99.0 -99.0 -99.0 -99.0 -99.0 -99.0 -99.0 -99.0 -99.0 -99.0 -99.0 -99.0 -99.0 -99.0 -99.0 -99.0 -99.0 -99.0 -99.0 -99.0 -99.0 -99.0 -99.0 -99.0 -99.0 -99.0 -99.0 -99.0 -99.0 -99.0 -99.0 -99.0 -99.0 -99.0 -99.0 -99.0 -99.0 -99.0 -99.0 -99.0 -99.0 -99.0 -99.0 -99.0 -99.0 -99.0 -99.0 2.84 2.88 2.95 3.03 3.11 3.18 3.26 3.33 3.41 3.49 3.58 3.63 3.63 3.63 3.63 -99.0 -99.0 -99.0 -99.0 3.63 3.61 3.7 3.82 3.81 3.8 3.79 3.78 3.77 3.76 3.75 3.74 3.82 4.03 4.32 4.62 4.91 5.2 5.49 5.78 6.07 6.36 6.56 6.68 6.8 6.91 7.03 7.14 7.26 7.38 7.49 7.59
-99.0 -99.0 -99.0 -99.0 -99.0 -99.0 -99.0 -99.0 -99.0 -99.0 -99.0 -99.0 -99.0 -99.0 -99.0 -99.0 -99.0 -99.0 -99.0 -99.0 -99.0 -99.0 -99.0 -99.0 -99.0 -99.0 -99.0 -99.0 -99.0 -99.0 -99.0 -99.0 -99.0 -99.0 -99.0 -99.0 -99.0 -99.0 -99.0 -99.0 -99.0 -99.0 -99.0 -99.0 -99.0 -99.0 -99.0 -99.0 -99.0 -99.0 -99.0 -99.0 -99.0 -99.0 -99.0 -99.0 -99.0 -99.0 -99.0 -99.0 -99.0 -99.0 -99.0 -99.0 -99.0 -99.0 -99.0 -99.0 -99.0 -99.0 -99.0 -99.0 -99.0 -99.0 -99.0 -99.0 -99.0 -99.0 -99.0 2.88 2.95 3.03 3.11 3.18 3.26 3.33 3.41 3.5 3.61 3.66 3.66 3.66 3.66 3.66 3.66 3.66 3.66 3.64 3.61 3.7 3.9 4.01 4.01 4.0 3.99 3.98 3.97 3.96 3.95 4.03 4.19 4.4 4.69 4.99 5.28 5.57 5.86 6.15 6.44 6.64 6.76 6.88 6.99 7.11 7.22 7.34 7.46 7.55 7.64
-99.0 -99.0 -99.0 -99.0 -99.0 -99.0 -99.0 -99.0 -99.0 -99.0 -99.0 -99.0 -99.0 -99.0 -99.0 -99.0 -99.0 -99.0 -99.0 -99.0 -99.0 -99.0 -99.0 -99.0 -99.0 -99.0 -99.0 -99.0 -99.0 -99.0 -99.0 -99.0 -99.0 -99.0 -99.0 -99.0 -99.0 -99.0 -99.0 -99.0 -99.0 -99.0 -99.0 -99.0 -99.0 -99.0 -99.0 -99.0 -99.0 -99.0 -99.0 -99.0 -99.0 -99.0 -99.0 -99.0 -99.0 -99.0 -99.0 -99.0 -99.0 -99.0 -99.0 -99.0 -99.0 -99.0 -99.0 -99.0 -99.0 -99.0 -99.0 -99.0 -99.0 -99.0 -99.0 -99.0 -99.0 -99.0 -99.0 -99.0 -99.0 3.03 3.11 3.18 3.26 3.33 3.43 3.53 3.64 3.69 3.69 3.69 3.69 3.69 3.69 3.69 3.67 3.64 3.61 3.7 3.9 4.1 4.21 4.2 4.2 4.19 4.18 4.17 4.16 4.24 4.4 4.56 4.77 5.06 5.36 5.65 5.94 6.23 6.52 6.72 6.84 6.95 7.07 7.19 7.3 7.42 7.52 7.6 7.69
-99.0 -99.0 -99.0 -99.0 -99.0 -99.0 -99.0 -99.0 -99.0 -99.0 -99.0 -99.0 -99.0 -99.0 -99.0 -99.0 -99.0 -99.0 -99.0 -99.0 -99.0 -99.0 -99.0 -99.0 -99.0 -99.0 -99.0 -99.0 -99.0 -99.0 -99.0 -99.0 -99.0 -99.0 -99.0 -99.0 -99.0 -99.0 -99.0 -99.0 -99.0 -99.0 -99.0 -99.0 -99.0 -99.0 -99.0 -99.0 -99.0 -99.0 -99.0 -99.0 -99.0 -99.0 -99.0 -99.0 -99.0 -99.0 -99.0 -99.0 -99.0 -99.0 -99.0 -99.0 -99.0 -99.0 -99.0 -99.0 -99.0 -99.0 -99.0 -99.0 -99.0 -99.0 -99.0 -99.0 -99.0 -99.0 -99.0 -99.0 -99.0 -99.0 -99.0 -99.0 3.26 3.35 3.46 3.56 3.67 3.72 3.72 3.72 3.72 3.72 3.72 3.7 3.67 3.64 3.61 3.7 3.9 4.1 4.3 4.41 4.4 4.39 4.39 4.38 4.37 4.44 4.61 4.77 4.93 5.14 5.43 5.73 6.02 6.31 6.6 6.8 6.92 7.03 7.15 7.27 7.38 7.48 7.56 7.65 7.73
-99.0 -99.0 -99.0 -99.0 -99.0 -99.0 -99.0 -99.0 -99.0 -99.0 -99.0 -99.0 -99.0 -99.0 -99.0 -99.0 -99.0 -99.0 -99.0 -99.0 -99.0 -99.0 -99.0 -99.0 -99.0 -99.0 -99.0 -99.0 -99.0 -99.0 -99.0 -99.0 -99.0 -99.0 -99.0 -99.0 -99.0 -99.0 -99.0 -99.0 -99.0 -99.0 -99.0 -99.0 -99.0 -99.0 -99.0 -99.0 -99.0 -99.0 -99.0 -99.0 -99.0 -99.0 -99.0 -99.0 -99.0 -99.0 -99.0 -99.0 -99.0 -99.0 -99.0 -99.0 -99.0 -99.0 -99.0 -99.0 -99.0 -99.0 -99.0 -99.0 -99.0 -99.0 -99.0 -99.0 -99.0 -99.0 -99.0 -99.0 -99.0 -99.0 -99.0 -99.0 -99.0 -99.0 3.49 3.59 3.7 3.75 3.75 3.75 3.75 3.75 3.73 3.7 3.67 3.64 3.61 3.7 3.9 4.1 4.3 4.5 4.61 4.6 4.59 4.58 4.58 4.65 4.81 4.98 5.14 5.3 5.51 5.8 6.1 6.39 6.68 6.88 7.0 7.11 7.23 7.34 7.44 7.53 7.61 7.7 7.78
-99.0 -99.0 -99.0 -99.0 -99.0 -99.0 -99.0 -99.0 -99.0 -99.0 -99.0 -99.0 -99.0 -99.0 -99.0 -99.0 -99.0 -99.0 -99.0 -99.0 -99.0 -99.0 -99.0 -99.0 -99.0 -99.0 -99.0 -99.0 -99.0 -99.0 -99.0 -99.0 -99.0 -99.0 -99.0 -99.0 -99.0 -99.0 -99.0 -99.0 -99.0 -99.0 -99.0 -99.0 -99.0 -99.0 -99.0 -99.0 -99.0 -99.0 -99.0 -99.0 -99.0 -99.0 -99.0 -99.0 -99.0 -99.0 -99.0 -99.0 -99.0 -99.0 -99.0 -99.0 -99.0 -99.0 -99.0 -99.0 -99.0 -99.0 -99.0 -99.0 -99.0 -99.0 -99.0 -99.0 -99.0 -99.0 -99.0 -99.0 -99.0 -99.0 -99.0 -99.0 -99.0 3.41 3.51 3.62 3.72 3.78 3.78 3.78 3.78 3.76 3.73 3.7 3.67 3.64 3.61 3.7 3.9 4.1 4.3 4.5 4.69 4.81 4.8 4.79 4.78 4.86 5.02 5.18 5.35 5.51 5.67 5.88 6.17 6.47 6.76 6.96 7.08 7.19 7.31 7.41 7.49 7.58 7.66 7.75 7.83
-99.0 -99.0 -99.0 -99.0 -99.0 -99.0 -99.0 -99.0 -99.0 -99.0 -99.0 -99.0 -99.0 -99.0 -99.0 -99.0 -99.0 -99.0 -99.0 -99.0 -99.0 -99.0 -99.0 -99.0 -99.0 -99.0 -99.0 -99.0 -99.0 -99.0 -99.0 -99.0 -99.0 -99.0 -99.0 -99.0 -99.0 -99.0 -99.0 -99.0 -99.0 -99.0 -99.0 -99.0 -99.0 -99.0 -99.0 -99.0 -99.0 -99.0 -99.0 -99.0 -99.0 -99.0 -99.0 -99.0 -99.0 -99.0 -99.0 -99.0 -99.0 -99.0 -99.0 -99.0 -99.0 -99.0 -99.0 -99.0 -99.0 -99.0 -99.0 -99.0 -99.0 -99.0 -99.0 -99.0 -99.0 -99.0 -99.0 -99.0 -99.0 -99.0 -99.0 -99.0 -99.0 3.44 3.54 3.65 3.75 3.81 3.81 3.81 3.79 3.76 3.73 3.7 3.67 3.64 3.61 3.7 3.9 4.1 4.3 4.5 4.69 4.89 5.01 5.0 4.99 5.07 5.23 5.39 5.55 5.72 5.88 6.04 6.25 6.54 6.84 7.04 7.15 7.27 7.37 7.45 7.54 7.62 7.71 7.79 7.88
-99.0 -99.0 -99.0 -99.0 -99.0 -99.0 -99.0 -99.0 -99.0 -99.0 -99.0 -99.0 -99.0 -99.0 -99.0 -99.0 -99.0 -99.0 -99.0 -99.0 -99.0 -99.0 -99.0 -99.0 -99.0 -99.0 -99.0 -99.0 -99.0 -99.0 -99.0 -99.0 -99.0 -99.0 -99.0 -99.0 -99.0 -99.0 -99.0 -99.0 -99.0 -99.0 -99.0 -99.0 -99.0 -99.0 -99.0 -99.0 -99.0 -99.0 -99.0 -99.0 -99.0 -99.0 -99.0 -99.0 -99.0 -99.0 -99.0 -99.0 -99.0 -99.0 -99.0 -99.0 -99.0 -99.0 -99.0 -99.0 -99.0 -99.0 -99.0 -99.0 -99.0 -99.0 -99.0 -99.0 -99.0 -99.0 2.84 2.88 2.95 3.05 -99.0 -99.0 -99.0 3.47 3.57 3.68 3.78 3.83 3.83 3.82 3.79 3.76 3.73 3.7 3.67 3.64 3.61 3.7 3.9 4.1 4.3 4.5 4.69 4.89 5.09 5.21 5.2 5.28 5.44 5.6 5.76 5.92 6.09 6.25 6.41 6.62 6.91 7.12 7.23 7.33 7.42 7.5 7.59 7.67 7.76 7.84 7.93
-99.0 -99.0 -99.0 -99.0 -99.0 -99.0 -99.0 -99.0 -99.0 -99.0 -99.0 -99.0 -99.0 -99.0 -99.0 -99.0 -99.0 -99.0 -99.0 -99.0 -99.0 -99.0 -99.0 -99.0 -99.0 -99.0 -99.0 -99.0 -99.0 -99.0 -99.0 -99.0 -99.0 -99.0 -99.0 -99.0 -99.0 -99.0 -99.0 -99.0 -99.0 -99.0 -99.0 -99.0 -99.0 -99.0 -99.0 -99.0 -99.0 -99.0 -99.0 -99.0 -99.0 -99.0 -99.0 -99.0 -99.0 -99.0 -99.0 -99.0 -99.0 -99.0 -99.0 -99.0 -99.0 -99.0 -99.0 -99.0 -99.0 -99.0 -99.0 -99.0 -99.0 -99.0 -99.0 -99.0 -99.0 -99.0 2.84 2.88 2.97 3.08 3.18 3.29 3.39 3.5 3.6 3.71 3.81 3.86 3.85 3.82 3.79 3.76 3.73 3.7 3.67 3.64 3.61 3.7 3.9 4.1 4.3 4.5 4.69 4.89 5.09 5.29 5.41 5.48 5.65 5.81 5.97 6.13 6.29 6.46 6.62 6.78 6.99 7.2 7.29 7.38 7.46 7.55 7.63 7.72 7.8 7.89 7.97
-99.0 -99.0 -99.0 -99.0 -99.0 -99.0 -99.0 -99.0 -99.0 -99.0 -99.0 -99.0 -99.0 -99.0 -99.0 -99.0 -99.0 -99.0 -99.0 -99.0 -99.0 -99.0 -99.0 -99.0 -99.0 -99.0 -99.0 -99.0 -99.0 -99.0 -99.0 -99.0 -99.0 -99.0 -99.0 -99.0 -99.0 -99.0 -99.0 -99.0 -99.0 -99.0 -99.0 -99.0 -99.0 -99.0 -99.0 -99.0 -99.0 -99.0 -99.0 -99.0 -99.0 -99.0 -99.0 -99.0 -99.0 -99.0 -99.0 -99.0 -99.0 -99.0 -99.0 -99.0 -99.0 -99.0 -99.0 -99.0 -99.0 -99.0 -99.0 -99.0 -99.0 -99.0 -99.0 -99.0 -99.0 -99.0 2.85 2.89 3.0 3.1 3.21 3.31 3.42 3.52 3.63 3.73 3.84 3.88 3.85 3.82 3.79 3.76 3.73 3.7 3.67 3.64 3.61 3.71 3.91 4.11 4.31 4.51 4.71 4.9 5.1 5.3 5.5 5.68 5.84 6.01 6.17 6.33 6.49 6.65 6.82 6.98 7.14 7.26 7.34 7.43 7.51 7.6 7.68 7.77 7.85 7.94 8.02
-99.0 -99.0 -99.0 -99.0 -99.0 -99.0 -99.0 -99.0 -99.0 -99.0 -99.0 -99.0 -99.0 -99.0 -99.0 -99.0 -99.0 -99.0 -99.0 -99.0 -99.0 -99.0 -99.0 -99.0 -99.0 -99.0 -99.0 -99.0 -99.0 -99.0 -99.0 -99.0 -99.0 -99.0 -99.0 -99.0 -99.0 -99.0 -99.0 -99.0 -99.0 -99.0 -99.0 -99.0 -99.0 -99.0 -99.0 -99.0 -99.0 -99.0 -99.0 -99.0 -99.0 -99.0 -99.0 -99.0 -99.0 -99.0 -99.0 -99.0 -99.0 -99.0 -99.0 -99.0 -99.0 -99.0 -99.0 -99.0 -99.0 -99.0 -99.0 -99.0 -99.0 -99.0 -99.0 -99.0 -99.0 -99.0 -99.0 2.89 3.0 3.1 3.21 3.31 3.42 3.52 3.63 3.73 3.84 3.88 3.85 3.82 3.79 3.76 3.73 3.7 3.67 3.64 3.73 3.87 4.02 4.22 4.41 4.61 4.81 5.01 5.21 5.41 5.61 5.79 5.95 6.11 6.27 6.44 6.6 6.76 6.92 7.08 7.2 7.28 7.37 7.45 7.54 7.62 7.71 7.79 7.88 7.96 8.05
-99.0 -99.0 -99.0 -99.0 -99.0 -99.0 -99.0 -99.0 -99.0 -99.0 -99.0 -99.0 -99.0 -99.0 -99.0 -99.0 -99.0 -99.0 -99.0 -99.0 -99.0 -99.0 -99.0 -99.0 -99.0 -99.0 -99.0 -99.0 -99.0 -99.0 -99.0 -99.0 -99.0 -99.0 -99.0 -99.0 -99.0 -99.0 -99.0 -99.0 -99.0 -99.0 -99.0 -99.0 -99.0 -99.0 -99.0 -99.0 -99.0 -99.0 -99.0 -99.0 -99.0 -99.0 -99.0 -99.0 -99.0 -99.0 -99.0 -99.0 -99.0 -99.0 -99.0 -99.0 -99.0 -99.0 -99.0 -99.0 -99.0 -99.0 -99.0 -99.0 -99.0 -99.0 -99.0 -99.0 -99.0 -99.0 -99.0 -99.0 -99.0 3.1 3.21 3.31 3.42 3.52 -99.0 -99.0 -99.0 3.88 3.85 3.82 3.79 3.76 3.73 3.7 3.67 3.76 3.92 4.06 4.17 4.32 4.52 4.72 4.92 5.12 5.32 5.52 5.72 5.9 6.06 6.22 6.38 6.54 6.71 6.87 7.03 7.14 7.22 7.31 7.39 7.48 7.56 7.65 7.73 7.82 7.9 7.99 8.07
-99.0 -99.0 -99.0 -99.0 -99.0 -99.0 -99.0 -99.0 -99.0 -99.0 -99.0 -99.0 -99.0 -99.0 -99.0 -99.0 -99.0 -99.0 -99.0 -99.0 -99.0 -99.0 -99.0 -99.0 -99.0 -99.0 -99.0 -99.0 -99.0 -99.0 -99.0 -99.0 -99.0 -99.0 -99.0 -99.0 -99.0 -99.0 -99.0 -99.0 -99.0 -99.0 -99.0 -99.0 -99.0 -99.0 -99.0 -99.0 -99.0 -99.0 -99.0 -99.0 -99.0 -99.0 -99.0 -99.0 -99.0 -99.0 -99.0 -99.0 -99.0 -99.0 -99.0 -99.0 -99.0 -99.0 -99.0 -99.0 -99.0 -99.0 -99.0 -99.0 -99.0 -99.0 3.07 3.07 3.03 -99.0 -99.0 -99.0 -99.0 -99.0 -99.0 -99.0 -99.0 -99.0 3.63 -99.0 3.84 3.88 3.85 3.82 3.79 3.76 3.73 3.7 3.79 3.95 4.12 4.25 4.37 4.48 4.63 4.83 5.03 5.23 5.42 5.62 5.82 6.0 6.16 6.33 6.49 6.65 6.81 6.97 7.09 7.17 7.25 7.33 7.42 7.5 7.59 7.67 7.76 7.84 7.93 8.01 8.1
-99.0 -99.0 -99.0 -99.0 -99.0 -99.0 -99.0 -99.0 -99.0 -99.0 -99.0 -99.0 -99.0 -99.0 -99.0 -99.0 -99.0 -99.0 -99.0 -99.0 -99.0 -99.0 -99.0 -99.0 -99.0 -99.0 -99.0 -99.0 -99.0 -99.0 -99.0 -99.0 -99.0 -99.0 -99.0 -99.0 -99.0 -99.0 -99.0 -99.0 -99.0 -99.0 -99.0 -99.0 -99.0 -99.0 -99.0 -99.0 -99.0 -99.0 -99.0 -99.0 -99.0 -99.0 -99.0 -99.0 -99.0 -99.0 -99.0 -99.0 -99.0 -99.0 -99.0 -99.0 -99.0 -99.0 -99.0 -99.0 -99.0 3.15 3.15 3.15 -99.0 -99.0 3.15 3.1 3.03 -99.0 -99.0 -99.0 -99.0 -99.0 -99.0 -99.0 3.42 3.52 3.63 -99.0 3.84 3.88 3.85 3.82 3.79 3.76 3.73 3.82 3.98 4.15 4.31 4.45 4.56 4.67 4.79 4.93 5.13 5.33 5.53 5.73 5.93 6.11 6.27 6.43 6.6 6.76 6.92 7.03 7.11 7.2 7.28 7.36 7.44 7.53 7.61 7.7 7.78 7.87 7.95 8.04 8.12
-99.0 -99.0 -99.0 -99.0 -99.0 -99.0 -99.0 -99.0 -99.0 -99.0 -99.0 -99.0 -99.0 -99.0 -99.0 -99.0 -99.0 -99.0 -99.0 -99.0 -99.0 -99.0 -99.0 -99.0 -99.0 -99.0 -99.0 -99.0 -99.0 -99.0 -99.0 -99.0 -99.0 -99.0 -99.0 -99.0 -99.0 -99.0 -99.0 -99.0 -99.0 -99.0 -99.0 -99.0 -99.0 -99.0 -99.0 -99.0 -99.0 -99.0 -99.0 -99.0 -99.0 -99.0 -99.0 -99.0 -99.0 -99.0 -99.0 -99.0 -99.0 -99.0 -99.0 -99.0 -99.0 -99.0 -99.0 -99.0 -99.0 3.22 3.22 3.22 3.22 -99.0 3.18 3.1 3.03 -99.0 2.88 2.89 3.0 3.1 3.21 3.31 3.42 3.52 3.63 3.73 3.84 3.88 3.85 3.82 3.79 3.76 3.85 4.01 4.17 4.34 4.5 4.64 4.75 4.87 4.98 5.09 5.24 5.44 5.64 5.84 6.04 6.22 6.38 6.54 6.7 6.86 6.98 7.06 7.14 7.22 7.3 7.39 7.47 7.56 7.64 7.73 7.81 7.89 7.98 8.06 8.15
-99.0 -99.0 -99.0 -99.0 -99.0 -99.0 -99.0 -99.0 -99.0 -99.0 -99.0 -99.0 -99.0 -99.0 -99.0 -99.0 -99.0 -99.0 -99.0 -99.0 -99.0 -99.0 -99.0 -99.0 -99.0 -99.0 -99.0 -99.0 -99.0 -99.0 -99.0 -99.0 -99.0 -99.0 -99.0 -99.0 -99.0 -99.0 -99.0 -99.0 -99.0 -99.0 -99.0 -99.0 -99.0 -99.0 -99.0 -99.0 -99.0 -99.0 -99.0 -99.0 -99.0 -99.0 -99.0 -99.0 -99.0 -99.0 -99.0 -99.0 -99.0 -99.0 -99.0 -99.0 -99.0 -99.0 -99.0 -99.0 -99.0 3.3 3.3 3.3 3.3 -99.0 3.18 3.1 3.03 2.95 2.88 2.89 3.0 3.1 3.21 3.31 3.42 3.52 3.63 3.73 3.84 3.88 3.85 3.82 3.79 3.88 4.04 4.2 4.37 4.53 4.7 4.83 4.95 5.06 5.17 5.29 5.4 5.55 5.75 5.94 6.14 6.32 6.49 6.65 6.81 6.92 7.0 7.09 7.17 7.25 7.33 7.41 7.5 7.58 7.67 7.75 7.83 7.92 8.0 8.09 8.17
-99.0 -99.0 -99.0 -99.0 -99.0 -99.0 -99.0 -99.0 -99.0 -99.0 -99.0 -99.0 -99.0 -99.0 -99.0 -99.0 -99.0 -99.0 -99.0 -99.0 -99.0 -99.0 -99.0 -99.0 -99.0 -99.0 -99.0 -99.0 -99.0 -99.0 -99.0 -99.0 -99.0 -99.0 -99.0 -99.0 -99.0 -99.0 -99.0 -99.0 -99.0 -99.0 -99.0 -99.0 -99.0 -99.0 -99.0 -99.0 -99.0 -99.0 -99.0 -99.0 -99.0 -99.0 -99.0 -99.0 -99.0 -99.0 -99.0 -99.0 -99.0 -99.0 -99.0 -99.0 -99.0 -99.0 -99.0 -99.0 -99.0 3.37 3.37 3.37 3.33 3.25 3.18 3.1 3.03 2.95 2.88 2.89 3.0 3.1 3.21 3.31 3.42 3.52 3.63 3.73 3.84 3.88 3.85 3.82 3.9 4.07 4.23 4.4 4.56 4.72 4.89 5.03 5.14 5.25 5.37 5.48 5.59 5.7 5.85 6.05 6.25 6.43 6.59 6.75 6.87 6.95 7.03 7.11 7.19 7.27 7.35 7.44 7.52 7.61 7.69 7.78 7.86 7.94 8.03 8.11 8.2
-99.0 -99.0 -99.0 -99.0 -99.0 -99.0 -99.0 -99.0 -99.0 -99.0 -99.0 -99.0 -99.0 -99.0 -99.0 -99.0 -99.0 -99.0 -99.0 -99.0 -99.0 -99.0 -99.0 -99.0 -99.0 -99.0 -99.0 -99.0 -99.0 -99.0 -99.0 -99.0 -99.0 -99.0 -99.0 -99.0 -99.0 -99.0 -99.0 -99.0 -99.0 -99.0 -99.0 -99.0 -99.0 -99.0 -99.0 -99.0 -99.0 -99.0 -99.0 -99.0 -99.0 -99.0 -99.0 -99.0 -99.0 -99.0 -99.0 -99.0 -99.0 -99.0 -99.0 -99.0 -99.0 -99.0 -99.0 -99.0 -99.0 3.45 3.45 3.4 3.33 3.25 3.18 3.1 3.03 2.95 2.88 2.89 3.0 3.1 3.21 3.31 3.42 3.52 3.63 3.73 3.84 3.88 3.85 3.93 4.1 4.26 4.43 4.59 4.75 4.92 5.08 5.22 5.33 5.45 5.56 5.67 5.78 5.9 6.01 6.16 6.36 6.54 6.7 6.81 6.89 6.98 7.06 7.14 7.22 7.3 7.38 7.46 7.55 7.63 7.72 7.8 7.88 7.97 8.05 8.14 8.22
-99.0 -99.0 -99.0 -99.0 -99.0 -99.0 -99.0 -99.0 -99.0 -99.0 -99.0 -99.0 -99.0 -99.0 -99.0 -99.0 -99.0 -99.0 -99.0 -99.0 -99.0 -99.0 -99.0 -99.0 -99.0 -99.0 -99.0 -99.0 -99.0 -99.0 -99.0 -99.0 -99.0 -99.0 -99.0 -99.0 -99.0 -99.0 -99.0 -99.0 -99.0 -99.0 -99.0 -99.0 -99.0 -99.0 -99.0 -99.0 -99.0 -99.0 -99.0 -99.0 -99.0 -99.0 -99.0 -99.0 -99.0 -99.0 -99.0 -99.0 -99.0 -99.0 -99.0 -99.0 -99.0 -99.0 -99.0 -99.0 -99.0 3.52 3.48 3.4 3.33 3.25 3.18 3.1 3.03 2.95 2.88 2.89 3.0 3.1 3.21 3.31 3.42 3.52 3.63 3.73 3.84 3.88 3.96 4.13 4.29 4.45 4.62 4.78 4.95 5.11 5.27 5.41 5.53 5.64 5.75 5.86 5.98 6.09 6.2 6.32 6.46 6.64 6.76 6.84 6.92 7.0 7.08 7.16 7.24 7.33 7.41 7.49 7.57 7.66 7.74 7.83 7.91 7.99 8.08 8.16 8.25
-99.0 -99.0 -99.0 -99.0 -99.0 -99.0 -99.0 -99.0 -99.0 -99.0 -99.0 -99.0 -99.0 -99.0 -99.0 -99.0 -99.0 -99.0 -99.0 -99.0 -99.0 -99.0 -99.0 -99.0 -99.0 -99.0 -99.0 -99.0 -99.0 -99.0 -99.0 -99.0 -99.0 -99.0 -99.0 -99.0 -99.0 -99.0 -99.0 -99.0 -99.0 -99.0 -99.0 -99.0 -99.0 -99.0 -99.0 -99.0 -99.0 -99.0 -99.0 -99.0 -99.0 -99.0 -99.0 -99.0 -99.0 -99.0 -99.0 -99.0 -99.0 -99.0 -99.0 -99.0 -99.0 -99.0 -99.0 3.59 3.59 3.57 3.49 3.42 3.34 3.27 3.19 3.12 3.04 2.97 2.89 2.91 3.01 3.12 3.22 3.33 3.43 3.54 3.64 3.75 3.85 3.98 4.14 4.31 4.47 4.63 4.8 4.96 5.13 5.29 5.45 5.59 5.71 5.82 5.93 6.05 6.16 6.27 6.38 6.5 6.61 6.7 6.78 6.86 6.94 7.02 7.11 7.19 7.27 7.35 7.43 7.51 7.6 7.68 7.76 7.85 7.93 8.02 8.1 8.18 8.27
-99.0 -99.0 -99.0 -99.0 -99.0 -99.0 -99.0 -99.0 -99.0 -99.0 -99.0 -99.0 -99.0 -99.0 -99.0 -99.0 -99.0 -99.0 -99.0 -99.0 -99.0 -99.0 -99.0 -99.0 -99.0 -99.0 -99.0 -99.0 -99.0 -99.0 -99.0 -99.0 -99.0 -99.0 -99.0 -99.0 -99.0 -99.0 -99.0 -99.0 -99.0 -99.0 -99.0 -99.0 -99.0 -99.0 -99.0 -99.0 -99.0 -99.0 -99.0 -99.0 -99.0 -99.0 -99.0 -99.0 3.74 3.7 3.66 -99.0 -99.0 -99.0 3.64 -99.0 -99.0 3.64 3.64 3.64 3.61 3.62 3.63 3.55 3.48 3.4 3.33 3.25 3.18 3.1 3.03 3.04 3.15 3.25 3.36 3.46 3.57 3.67 3.78 3.88 3.98 4.08 4.21 4.37 4.54 4.7 4.86 5.03 5.19 5.36 5.52 5.66 5.77 5.89 6.0 6.11 6.22 6.34 6.45 6.56 6.64 6.71 6.78 6.86 6.94 7.02 7.1 7.18 7.26 7.35 7.43 7.51 7.59 7.68 7.76 7.84 7.93 8.01 8.1 8.18 8.26
-99.0 -99.0 -99.0 -99.0 -99.0 -99.0 -99.0 -99.0 -99.0 -99.0 -99.0 -99.0 -99.0 -99.0 -99.0 -99.0 -99.0 -99.0 -99.0 -99.0 -99.0 -99.0 -99.0 -99.0 -99.0 -99.0 -99.0 -99.0 -99.0 -99.0 -99.0 -99.0 -99.0 -99.0 -99.0 -99.0 -99.0 -99.0 -99.0 -99.0 -99.0 -99.0 -99.0 -99.0 -99.0 -99.0 -99.0 -99.0 -99.0 -99.0 -99.0 -99.0 -99.0 -99.0 -99.0 -99.0 3.78 3.74 3.7 3.68 3.68 -99.0 -99.0 -99.0 3.68 3.68 3.68 3.65 3.61 3.62 3.68 3.69 3.61 3.54 3.46 3.39 3.31 3.24 3.16 3.18 3.28 3.39 3.49 3.6 3.7 3.81 3.91 4.01 4.11 4.21 4.31 4.44 4.6 4.77 4.93 5.09 5.26 5.42 5.59 5.73 5.84 5.95 6.06 6.18 6.29 6.4 6.52 6.6 6.66 6.72 6.78 6.86 6.94 7.02 7.1 7.18 7.26 7.34 7.42 7.51 7.59 7.67 7.76 7.84 7.93 8.01 8.09 8.17 8.24
-99.0 -99.0 -99.0 -99.0 -99.0 -99.0 -99.0 -99.0 -99.0 -99.0 -99.0 -99.0 -99.0 -99.0 -99.0 -99.0 -99.0 -99.0 -99.0 -99.0 -99.0 -99.0 -99.0 -99.0 -99.0 -99.0 -99.0 -99.0 -99.0 -99.0 -99.0 -99.0 -99.0 -99.0 -99.0 -99.0 -99.0 -99.0 -99.0 -99.0 -99.0 -99.0 -99.0 -99.0 -99.0 -99.0 -99.0 -99.0 -99.0 -99.0 -99.0 -99.0 -99.0 -99.0 -99.0 -99.0 3.83 3.78 3.74 3.72 3.72 -99.0 -99.0 3.72 3.72 3.72 3.7 3.65 3.61 3.62 3.68 3.74 3.75 3.67 3.6 3.52 3.45 3.37 3.3 3.31 3.42 3.52 3.63 3.73 3.84 3.94 4.04 4.14 4.24 4.34 4.44 4.54 4.67 4.83 5.0 5.16 5.32 5.49 5.65 5.79 5.9 6.02 6.13 6.24 6.36 6.47 6.55 6.61 6.67 6.73 6.8 6.86 6.93 7.02 7.1 7.18 7.26 7.34 7.42 7.5 7.59 7.67 7.75 7.84 7.92 8.01 8.08 8.15 8.22
-99.0 -99.0 -99.0 -99.0 -99.0 -99.0 -99.0 -99.0 -99.0 -99.0 -99.0 -99.0 -99.0 -99.0 -99.0 -99.0 -99.0 -99.0 -99.0 -99.0 -99.0 -99.0 -99.0 -99.0 -99.0 -99.0 -99.0 -99.0 -99.0 -99.0 -99.0 -99.0 -99.0 -99.0 -99.0 -99.0 -99.0 -99.0 -99.0 -99.0 -99.0 -99.0 -99.0 -99.0 -99.0 -99.0 -99.0 -99.0 -99.0 -99.0 -99.0 -99.0 -99.0 -99.0 -99.0 -99.0 -99.0 3.83 3.79 3.77 3.77 -99.0 3.77 3.77 3.77 3.74 3.7 3.65 3.61 3.62 3.68 3.74 3.8 3.81 3.73 3.66 3.58 3.51 3.43 3.45 3.55 3.66 3.76 3.87 3.97 4.07 4.17 4.27 4.37 4.47 4.57 4.67 4.77 4.9 5.06 5.23 5.39 5.55 5.72 5.86 5.97 6.08 6.2 6.31 6.42 6.5 6.56 6.62 6.68 6.74 6.81 6.87 6.94 7.01 7.09 7.17 7.26 7.34 7.42 7.5 7.58 7.67 7.75 7.84 7.92 8.0 8.07 8.14 8.21
-99.0 -99.0 -99.0 -99.0 -99.0 -99.0 -99.0 -99.0 -99.0 -99.0 -99.0 -99.0 -99.0 -99.0 -99.0 -99.0 -99.0 -99.0 -99.0 -99.0 -99.0 -99.0 -99.0 -99.0 -99.0 -99.0 -99.0 -99.0 -99.0 -99.0 -99.0 -99.0 -99.0 -99.0 -99.0 -99.0 -99.0 -99.0 -99.0 -99.0 -99.0 -99.0 -99.0 -99.0 -99.0 -99.0 -99.0 -99.0 -99.0 -99.0 -99.0 -99.0 -99.0 -99.0 -99.0 -99.0 -99.0 -99.0 3.83 3.81 3.81 3.81 3.81 3.81 3.78 3.74 3.7 3.65 3.61 3.62 3.68 3.74 3.8 3.86 3.87 3.79 3.72 3.64 3.57 3.58 3.69 3.79 3.9 4.0 4.1 4.2 4.3 4.4 4.5 4.6 4.7 4.8 4.9 5.0 5.13 5.29 5.46 5.62 5.78 5.92 6.04 6.15 6.26 6.38 6.46 6.51 6.57 6.63 6.69 6.75 6.82 6.89 6.95 7.02 7.09 7.17 7.25 7.33 7.41 7.5 7.58 7.66 7.75 7.83 7.91 7.98 8.05 8.12 8.19
-99.0 -99.0 -99.0 -99.0 -99.0 -99.0 -99.0 -99.0 -99.0 -99.0 -99.0 -99.0 -99.0 -99.0 -99.0 -99.0 -99.0 -99.0 -99.0 -99.0 -99.0 -99.0 -99.0 -99.0 -99.0 -99.0 -99.0 -99.0 -99.0 -99.0 -99.0 -99.0 -99.0 -99.0 -99.0 -99.0 -99.0 -99.0 -99.0 -99.0 -99.0 -99.0 -99.0 -99.0 -99.0 -99.0 -99.0 -99.0 -99.0 -99.0 -99.0 -99.0 -99.0 -99.0 -99.0 -99.0 -99.0 -99.0 3.87 3.85 3.85 3.85 3.85 3.83 3.78 3.74 3.7 3.65 3.61 3.62 3.68 3.74 3.8 3.86 3.92 3.93 3.85 3.78 3.7 3.72 3.82 3.93 4.03 4.13 4.23 4.33 4.43 4.53 4.63 4.73 4.83 4.93 5.03 5.13 5.23 5.36 5.52 5.69 5.85 5.99 6.1 6.22 6.33 6.41 6.47 6.53 6.59 6.64 6.7 6.77 6.83 6.9 6.96 7.03 7.1 7.17 7.25 7.33 7.41 7.49 7.58 7.66 7.75 7.82 7.89 7.96 8.03 8.1 8.17
-99.0 -99.0 -99.0 -99.0 -99.0 -99.0 -99.0 -99.0 -99.0 -99.0 -99.0 -99.0 -99.0 -99.0 -99.0 -99.0 -99.0 -99.0 -99.0 -99.0 -99.0 -99.0 -99.0 -99.0 -99.0 -99.0 -99.0 -99.0 -99.0 -99.0 -99.0 -99.0 -99.0 -99.0 -99.0 -99.0 -99.0 -99.0 -99.0 -99.0 -99.0 -99.0 -99.0 -99.0 -99.0 -99.0 -99.0 -99.0 -99.0 -99.0 -99.0 -99.0 -99.0 -99.0 -99.0 -99.0 -99.0 -99.0 3.92 3.9 3.9 3.9 3.87 3.83 3.78 3.74 3.7 3.65 3.61 3.62 3.68 3.74 3.8 3.86 3.92 3.98 3.99 3.91 3.84 3.85 3.96 4.06 4.16 4.26 4.36 4.46 4.56 4.66 4.76 4.86 4.96 5.06 5.16 5.26 5.36 5.46 5.59 5.75 5.92 6.06 6.17 6.28 6.36 6.42 6.48 6.54 6.6 6.66 6.72 6.78 6.84 6.91 6.98 7.04 7.11 7.17 7.25 7.33 7.41 7.49 7.57 7.66 7.73 7.8 7.87 7.94 8.01 8.08 8.15
-99.0 -99.0 -99.0 -99.0 -99.0 -99.0 -99.0 -99.0 -99.0 -99.0 -99.0 -99.0 -99.0 -99.0 -99.0 -99.0 -99.0 -99.0 -99.0 -99.0 -99.0 -99.0 -99.0 -99.0 -99.0 -99.0 -99.0 -99.0 -99.0 -99.0 -99.0 -99.0 -99.0 -99.0 -99.0 -99.0 -99.0 -99.0 -99.0 -99.0 -99.0 -99.0 -99.0 -99.0 -99.0 -99.0 -99.0 -99.0 -99.0 -99.0 -99.0 -99.0 -99.0 -99.0 -99.0 -99.0 -99.0 -99.0 3.96 3.94 3.94 3.91 3.87 3.83 3.78 3.74 3.7 3.65 3.61 3.62 3.68 3.74 3.8 3.86 3.92 3.98 4.04 4.05 3.97 3.99 4.09 4.19 4.29 4.39 4.49 4.59 4.69 4.79 4.89 4.99 5.09 5.19 5.29 5.39 5.49 5.59 5.69 5.82 5.98 6.12 6.23 6.31 6.37 6.43 6.49 6.55 6.61 6.67 6.73 6.79 6.86 6.92 6.99 7.05 7.12 7.19 7.25 7.32 7.41 7.49 7.57 7.65 7.72 7.79 7.86 7.93 8.0 8.07 8.14
-99.0 -99.0 -99.0 -99.0 -99.0 -99.0 -99.0 -99.0 -99.0 -99.0 -99.0 -99.0 -99.0 -99.0 -99.0 -99.0 -99.0 -99.0 -99.0 -99.0 -99.0 -99.0 -99.0 -99.0 -99.0 -99.0 -99.0 -99.0 -99.0 -99.0 -99.0 -99.0 -99.0 -99.0 -99.0 -99.0 -99.0 -99.0 -99.0 -99.0 -99.0 -99.0 -99.0 -99.0 -99.0 3.78 3.84 3.91 -99.0 -99.0 -99.0 -99.0 -99.0 -99.0 -99.0 -99.0 -99.0 -99.0 -99.0 3.98 3.96 3.91 3.87 3.83 3.78 3.74 3.7 3.65 3.61 3.62 3.68 3.74 3.8 3.86 3.92 3.98 4.04 4.1 4.11 4.12 4.22 4.32 4.42 4.52 4.62 4.72 4.82 4.92 5.01 5.11 5.22 5.32 5.42 5.52 5.62 5.72 5.82 5.92 6.05 6.19 6.27 6.33 6.39 6.44 6.5 6.56 6.62 6.68 6.74 6.8 6.87 6.93 7.0 7.07 7.13 7.2 7.26 7.33 7.4 7.48 7.56 7.63 7.7 7.77 7.84 7.91 7.98 8.05 8.12
-99.0 -99.0 -99.0 -99.0 -99.0 -99.0 -99.0 -99.0 -99.0 -99.0 -99.0 -99.0 -99.0 -99.0 -99.0 -99.0 -99.0 -99.0 -99.0 -99.0 -99.0 -99.0 -99.0 -99.0 -99.0 -99.0 -99.0 -99.0 -99.0 -99.0 -99.0 -99.0 -99.0 -99.0 -99.0 -99.0 -99.0 -99.0 -99.0 -99.0 -99.0 -99.0 -99.0 -99.0 3.72 3.78 3.84 3.91 3.97 -99.0 -99.0 4.0 4.01 4.01 -99.0 -99.0 -99.0 -99.0 4.02 4.01 3.96 3.92 3.88 3.83 3.79 3.75 3.71 3.66 3.62 3.63 3.69 3.75 3.81 3.87 3.93 3.99 4.05 4.11 4.17 4.24 4.34 4.44 4.54 4.64 4.74 4.84 4.94 5.04 5.14 5.23 5.33 5.43 5.53 5.64 5.74 5.84 5.94 6.04 6.14 6.22 6.28 6.34 6.4 6.46 6.52 6.57 6.63 6.69 6.75 6.81 6.88 6.95 7.01 7.08 7.14 7.21 7.28 7.34 7.41 7.48 7.55 7.62 7.69 7.76 7.83 7.9 7.97 8.04 8.11
-99.0 -99.0 -99.0 -99.0 -99.0 -99.0 -99.0 -99.0 -99.0 -99.0 -99.0 -99.0 -99.0 -99.0 -99.0 -99.0 -99.0 -99.0 -99.0 -99.0 -99.0 -99.0 -99.0 -99.0 -99.0 -99.0 -99.0 -99.0 -99.0 -99.0 -99.0 -99.0 -99.0 -99.0 -99.0 -99.0 -99.0 -99.0 -99.0 -99.0 -99.0 -99.0 -99.0 3.66 3.72 3.78 3.84 3.91 3.97 4.0 4.0 4.0 4.01 4.01 4.01 4.01 4.01 4.02 4.02 4.04 4.04 4.0 3.96 3.91 3.87 3.83 3.79 3.74 3.7 3.71 3.77 3.83 3.89 3.95 4.01 4.07 4.13 4.19 4.25 4.32 4.4 4.5 4.6 4.69 4.79 4.89 4.99 5.09 5.19 5.27 5.34 5.44 5.54 5.64 5.74 5.84 5.95 6.05 6.15 6.23 6.29 6.35 6.4 6.46 6.52 6.58 6.64 6.7 6.76 6.83 6.9 6.96 7.03 7.1 7.16 7.23 7.29 7.36 7.43 7.5 7.57 7.64 7.71 7.78 7.85 7.92 7.99 8.06 8.13
-99.0 -99.0 -99.0 -99.0 -99.0 -99.0 -99.0 -99.0 -99.0 -99.0 -99.0 -99.0 -99.0 -99.0 -99.0 -99.0 -99.0 -99.0 -99.0 -99.0 -99.0 -99.0 -99.0 -99.0 -99.0 -99.0 -99.0 -99.0 -99.0 -99.0 -99.0 -99.0 -99.0 -99.0 -99.0 -99.0 -99.0 -99.0 -99.0 -99.0 -99.0 -99.0 -99.0 3.66 3.72 3.78 3.84 3.91 3.97 4.0 4.0 4.0 4.01 4.01 4.01 4.01 4.01 4.02 4.02 4.04 4.08 4.08 4.04 3.99 3.95 3.91 3.87 3.82 3.78 3.79 3.85 3.91 3.97 4.03 4.09 4.15 4.21 4.27 4.33 4.4 4.47 4.55 4.65 4.75 4.85 4.95 5.05 5.14 5.24 5.32 5.37 5.45 5.55 5.65 5.75 5.85 5.95 6.05 6.15 6.23 6.29 6.35 6.41 6.47 6.53 6.59 6.65 6.71 6.78 6.85 6.92 6.98 7.05 7.11 7.18 7.25 7.31 7.38 7.45 7.52 7.59 7.66 7.73 7.8 7.87 7.94 8.01 8.08 8.15
-99.0 -99.0 -99.0 -99.0 -99.0 -99.0 -99.0 -99.0 -99.0 -99.0 -99.0 -99.0 -99.0 -99.0 -99.0 -99.0 -99.0 -99.0 -99.0 -99.0 -99.0 -99.0 -99.0 -99.0 -99.0 -99.0 -99.0 -99.0 -99.0 -99.0 -99.0 -99.0 -99.0 -99.0 -99.0 -99.0 -99.0 -99.0 -99.0 -99.0 -99.0 -99.0 3.6 3.66 3.72 3.78 3.84 3.91 3.97 4.0 4.0 4.0 4.01 4.01 4.01 4.01 4.01 4.02 4.02 4.04 4.08 4.11 4.12 4.07 4.03 3.99 3.95 3.9 3.86 3.87 3.93 3.99 4.05 4.11 4.17 4.23 4.29 4.35 4.41 4.48 4.55 4.62 4.7 4.8 4.9 5.0 5.1 5.2 5.3 5.37 5.43 5.48 5.56 5.66 5.76 5.86 5.96 6.06 6.16 6.24 6.3 6.36 6.42 6.48 6.54 6.6 6.66 6.73 6.8 6.87 6.93 7.0 7.07 7.13 7.2 7.26 7.33 7.4 7.48 7.55 7.61 7.68 7.75 7.82 7.89 7.96 8.03 8.1 8.17
-99.0 -99.0 -99.0 -99.0 -99.0 -99.0 -99.0 -99.0 -99.0 -99.0 -99.0 -99.0 -99.0 -99.0 -99.0 -99.0 -99.0 -99.0 -99.0 -99.0 -99.0 -99.0 -99.0 -99.0 -99.0 -99.0 -99.0 -99.0 -99.0 -99.0 -99.0 -99.0 -99.0 -99.0 -99.0 -99.0 -99.0 -99.0 -99.0 -99.0 -99.0 3.54 3.6 3.66 3.72 3.78 3.84 3.91 3.97 4.0 4.0 4.0 4.01 4.01 4.01 4.01 4.01 4.02 4.02 4.04 4.08 4.11 4.15 4.15 4.11 4.07 4.03 3.98 3.94 3.95 4.01 4.07 4.13 4.19 4.25 4.31 4.37 4.43 4.49 4.56 4.63 4.7 4.77 4.86 4.96 5.05 5.15 5.25 5.35 5.43 5.48 5.54 5.59 5.66 5.76 5.87 5.97 6.07 6.17 6.25 6.31 6.37 6.43 6.48 6.54 6.61 6.68 6.75 6.82 6.89 6.95 7.02 7.08 7.15 7.22 7.29 7.36 7.43 7.5 7.57 7.64 7.7 7.77 7.84 7.91 7.98 8.05 8.12 8.19
-99.0 -99.0 -99.0 -99.0 -99.0 -99.0 -99.0 -99.0 -99.0 -99.0 -99.0 -99.0 -99.0 -99.0 -99.0 -99.0 -99.0 -99.0 -99.0 -99.0 -99.0 -99.0 -99.0 -99.0 -99.0 -99.0 -99.0 -99.0 -99.0 -99.0 -99.0 -99.0 -99.0 -99.0 -99.0 -99.0 -99.0 -99.0 -99.0 -99.0 3.47 3.54 3.6 3.66 3.72 3.78 3.84 3.91 3.97 4.0 4.0 4.0 4.01 4.01 4.01 4.01 4.01 4.02 4.02 4.04 4.08 4.11 4.15 4.19 4.19 4.15 4.11 4.06 4.02 4.03 4.09 4.15 4.21 4.27 4.33 4.39 4.45 4.51 4.57 4.64 4.71 4.78 4.86 4.93 5.01 5.11 5.21 5.31 5.41 5.48 5.54 5.59 5.64 5.7 5.77 5.87 5.97 6.07 6.18 6.26 6.31 6.37 6.43 6.49 6.56 6.63 6.7 6.77 6.84 6.9 6.97 7.04 7.1 7.17 7.24 7.31 7.38 7.45 7.52 7.59 7.66 7.73 7.8 7.86 7.93 8.0 8.07 8.14 8.21
-99.0 -99.0 -99.0 -99.0 -99.0 -99.0 -99.0 -99.0 -99.0 -99.0 -99.0 -99.0 -99.0 -99.0 -99.0 -99.0 -99.0 -99.0 -99.0 -99.0 -99.0 -99.0 -99.0 -99.0 -99.0 -99.0 -99.0 -99.0 -99.0 -99.0 -99.0 -99.0 -99.0 -99.0 -99.0 -99.0 -99.0 -99.0 -99.0 3.41 3.47 3.54 3.6 3.66 3.72 3.78 3.84 3.91 3.97 4.0 4.0 4.0 4.01 4.01 4.01 4.01 4.01 4.02 4.02 4.04 4.08 4.11 4.15 4.19 4.22 4.23 4.19 4.14 4.1 4.11 4.17 4.23 4.29 4.35 4.41 4.47 4.53 4.59 4.65 4.72 4.79 4.86 4.94 5.01 5.08 5.16 5.26 5.36 5.46 5.54 5.59 5.64 5.7 5.75 5.81 5.88 5.98 6.08 6.18 6.26 6.32 6.38 6.44 6.5 6.57 6.64 6.71 6.78 6.85 6.92 6.99 7.05 7.12 7.19 7.26 7.33 7.4 7.47 7.54 7.61 7.68 7.75 7.82 7.89 7.95 8.02 8.09 8.16 8.23
-99.0 -99.0 -99.0 -99.0 -99.0 -99.0 -99.0 -99.0 -99.0 -99.0 -99.0 -99.0 -99.0 -99.0 -99.0 -99.0 -99.0 -99.0 -99.0 -99.0 -99.0 -99.0 -99.0 -99.0 -99.0 -99.0 -99.0 -99.0 -99.0 -99.0 -99.0 -99.0 -99.0 -99.0 -99.0 -99.0 -99.0 -99.0 3.38 3.41 3.47 3.53 3.6 3.66 3.72 3.78 3.84 3.91 3.97 4.0 4.0 4.0 4.01 4.01 4.01 4.01 4.01 4.02 4.02 4.04 4.08 4.11 4.15 4.19 4.22 4.26 4.27 4.22 4.18 4.19 4.25 4.31 4.37 4.43 4.49 4.55 4.61 4.67 4.73 4.8 4.87 4.95 5.02 5.09 5.16 5.23 5.32 5.41 5.51 5.59 5.64 5.7 5.75 5.81 5.86 5.91 5.99 6.09 6.19 6.27 6.33 6.39 6.45 6.52 6.59 6.66 6.73 6.8 6.87 6.94 7.01 7.07 7.14 7.21 7.28 7.35 7.43 7.5 7.57 7.64 7.71 7.77 7.84 7.91 7.98 8.05 8.11 8.18 8.25
-99.0 -99.0 -99.0 -99.0 -99.0 -99.0 -99.0 -99.0 -99.0 -99.0 -99.0 -99.0 -99.0 -99.0 -99.0 -99.0 -99.0 -99.0 -99.0 -99.0 -99.0 -99.0 -99.0 -99.0 -99.0 -99.0 -99.0 -99.0 -99.0 -99.0 -99.0 -99.0 -99.0 -99.0 -99.0 -99.0 -99.0 3.38 3.38 3.41 3.47 3.54 3.6 3.66 3.72 3.78 3.84 3.91 3.97 4.0 4.0 4.0 4.01 4.01 4.01 4.01 4.01 4.02 4.02 4.04 4.08 4.11 4.15 4.19 4.22 4.26 4.3 4.3 4.26 4.27 4.33 4.39 4.45 4.51 4.57 4.63 4.69 4.75 4.82 4.88 4.95 5.03 5.1 5.17 5.24 5.31 5.39 5.47 5.57 5.64 5.7 5.75 5.81 5.86 5.91 5.97 6.02 6.1 6.2 6.28 6.34 6.4 6.47 6.54 6.61 6.68 6.75 6.82 6.89 6.96 7.02 7.09 7.16 7.24 7.31 7.38 7.45 7.52 7.59 7.66 7.73 7.8 7.86 7.93 8.0 8.07 8.14 8.21 8.28
-99.0 -99.0 -99.0 -99.0 -99.0 -99.0 -99.0 -99.0 -99.0 -99.0 -99.0 -99.0 -99.0 -99.0 -99.0 -99.0 -99.0 -99.0 -99.0 -99.0 -99.0 -99.0 -99.0 -99.0 -99.0 -99.0 -99.0 -99.0 -99.0 -99.0 -99.0 -99.0 -99.0 -99.0 -99.0 -99.0 3.38 3.38 3.38 3.41 3.47 3.53 3.6 3.66 3.72 3.78 3.84 3.91 3.97 4.0 4.0 4.0 4.01 4.01 4.01 4.01 4.01 4.02 4.02 4.04 4.08 4.11 4.15 4.19 4.22 4.26 4.3 4.33 4.34 4.35 4.41 4.47 4.53 4.59 4.65 4.71 4.77 4.84 4.9 4.96 5.04 5.11 5.18 5.25 5.32 5.4 5.47 5.54 5.62 5.7 5.75 5.81 5.86 5.91 5.97 6.02 6.08 6.13 6.2 6.28 6.35 6.42 6.49 6.56 6.63 6.7 6.77 6.84 6.91 6.98 7.05 7.12 7.19 7.26 7.33 7.4 7.47 7.54 7.61 7.68 7.75 7.82 7.89 7.96 8.02 8.09 8.16 8.23 8.3
-99.0 -99.0 -99.0 -99.0 -99.0 -99.0 -99.0 -99.0 -99.0 -99.0 -99.0 -99.0 -99.0 -99.0 -99.0 -99.0 -99.0 -99.0 -99.0 -99.0 -99.0 -99.0 -99.0 -99.0 -99.0 -99.0 -99.0 -99.0 -99.0 -99.0 -99.0 -99.0 -99.0 -99.0 -99.0 -99.0 3.39 3.39 3.39 3.42 3.49 3.55 3.61 3.67 3.73 3.8 3.86 3.92 3.98 4.02 4.02 4.02 4.02 4.02 4.03 4.03 4.03 4.03 4.03 4.05 4.09 4.13 4.16 4.2 4.24 4.28 4.31 4.35 4.39 4.42 4.48 4.55 4.61 4.67 4.73 4.79 4.85 4.91 4.97 5.04 5.11 5.18 5.25 5.32 5.4 5.47 5.54 5.61 5.68 5.75 5.8 5.85 5.91 5.96 6.02 6.07 6.12 6.18 6.23 6.29 6.36 6.43 6.5 6.57 6.64 6.71 6.78 6.85 6.92 6.99 7.07 7.14 7.21 7.28 7.35 7.42 7.49 7.56 7.63 7.7 7.77 7.84 7.91 7.97 8.04 8.11 8.18 8.25 8.31
-99.0 -99.0 -99.0 -99.0 -99.0 -99.0 -99.0 -99.0 -99.0 -99.0 -99.0 -99.0 -99.0 -99.0 -99.0 -99.0 -99.0 -99.0 -99.0 -99.0 -99.0 -99.0 -99.0 -99.0 -99.0 -99.0 -99.0 -99.0 -99.0 -99.0 -99.0 -99.0 -99.0 3.52 3.52 3.52 3.52 3.52 3.52 3.55 3.61 3.67 3.73 3.8 3.86 3.92 3.98 4.04 4.12 4.16 4.16 4.16 4.17 4.17 4.17 4.17 4.17 4.18 4.18 4.2 4.23 4.27 4.31 4.35 4.38 4.42 4.46 4.49 4.5 4.49 4.52 4.58 4.64 4.7 4.76 4.82 4.88 4.94 5.0 5.05 5.11 5.18 5.25 5.32 5.39 5.47 5.54 5.61 5.68 5.75 5.8 5.85 5.91 5.96 6.02 6.07 6.12 6.18 6.23 6.29 6.36 6.43 6.5 6.57 6.64 6.71 6.78 6.85 6.92 6.99 7.06 7.13 7.2 7.27 7.34 7.41 7.48 7.55 7.62 7.69 7.76 7.83 7.9 7.96 8.03 8.1 8.17 8.24 8.31
-99.0 -99.0 -99.0 -99.0 -99.0 -99.0 -99.0 -99.0 -99.0 -99.0 -99.0 -99.0 -99.0 -99.0 -99.0 -99.0 -99.0 -99.0 -99.0 -99.0 -99.0 -99.0 -99.0 -99.0 -99.0 -99.0 -99.0 -99.0 -99.0 -99.0 -99.0 -99.0 3.64 3.64 3.64 3.64 3.64 3.64 3.64 3.67 3.73 3.8 3.86 3.92 3.98 4.04 4.11 4.18 4.26 4.3 4.31 4.31 4.31 4.31 4.32 4.32 4.32 4.32 4.32 4.34 4.38 4.42 4.45 4.49 4.53 4.56 4.6 4.6 4.58 4.58 4.58 4.61 4.67 4.73 4.79 4.85 4.91 4.97 5.03 5.09 5.13 5.18 5.25 5.32 5.39 5.47 5.54 5.61 5.68 5.74 5.8 5.85 5.91 5.96 6.01 6.07 6.12 6.18 6.23 6.29 6.35 6.42 6.49 6.56 6.63 6.7 6.77 6.84 6.91 6.98 7.05 7.12 7.19 7.26 7.33 7.4 7.48 7.55 7.61 7.68 7.75 7.82 7.89 7.95 8.02 8.09 8.16 8.23 8.31
-99.0 -99.0 -99.0 -99.0 -99.0 -99.0 -99.0 -99.0 -99.0 -99.0 -99.0 -99.0 -99.0 -99.0 -99.0 -99.0 -99.0 -99.0 -99.0 -99.0 -99.0 -99.0 -99.0 -99.0 -99.0 -99.0 -99.0 -99.0 -99.0 -99.0 -99.0 -99.0 3.76 3.76 3.76 3.76 3.76 3.76 3.76 3.8 3.86 3.92 3.98 4.04 4.11 4.17 4.24 4.32 4.4 4.44 4.45 4.45 4.46 4.46 4.46 4.46 4.46 4.47 4.47 4.49 4.52 4.56 4.6 4.64 4.67 4.71 4.71 4.69 4.67 4.66 4.67 4.67 4.7 4.76 4.82 4.88 4.94 5.0 5.07 5.12 5.16 5.2 5.25 5.32 5.39 5.46 5.54 5.61 5.68 5.74 5.8 5.85 5.91 5.96 6.01 6.07 6.12 6.17 6.22 6.28 6.35 6.41 6.48 6.55 6.62 6.69 6.76 6.83 6.9 6.97 7.04 7.11 7.18 7.25 7.33 7.4 7.47 7.54 7.6 7.67 7.74 7.81 7.88 7.94 8.01 8.08 8.16 8.23 8.31
-99.0 -99.0 -99.0 -99.0 -99.0 -99.0 -99.0 -99.0 -99.0 -99.0 -99.0 -99.0 -99.0 -99.0 -99.0 -99.0 -99.0 -99.0 -99.0 -99.0 -99.0 -99.0 -99.0 -99.0 -99.0 -99.0 -99.0 -99.0 -99.0 -99.0 -99.0 -99.0 3.93 3.89 3.89 3.89 3.89 3.89 3.89 3.92 3.98 4.04 4.11 4.17 4.23 4.3 4.38 4.46 4.54 4.58 4.59 4.59 4.6 4.6 4.61 4.61 4.61 4.61 4.61 4.63 4.67 4.71 4.74 4.78 4.82 4.82 4.8 4.78 4.76 4.75 4.75 4.76 4.76 4.79 4.85 4.91 4.97 5.04 5.1 5.15 5.19 5.23 5.27 5.32 5.39 5.46 5.54 5.61 5.68 5.74 5.8 5.85 5.9 5.96 6.01 6.07 6.12 6.17 6.22 6.28 6.35 6.41 6.48 6.54 6.61 6.68 6.75 6.82 6.89 6.96 7.03 7.1 7.18 7.25 7.32 7.39 7.46 7.53 7.59 7.66 7.73 7.8 7.87 7.93 8.0 8.08 8.15 8.23 8.31
-99.0 -99.0 -99.0 -99.0 -99.0 -99.0 -99.0 -99.0 -99.0 -99.0 -99.0 -99.0 -99.0 -99.0 -99.0 -99.0 -99.0 -99.0 -99.0 -99.0 -99.0 -99.0 -99.0 -99.0 -99.0 -99.0 -99.0 -99.0 -99.0 -99.0 4.25 4.18 4.12 4.05 4.01 4.01 4.01 4.01 4.01 4.04 4.11 4.17 4.23 4.29 4.36 4.44 4.52 4.6 4.68 4.73 4.73 4.74 4.74 4.75 4.75 4.75 4.75 4.76 4.76 4.78 4.82 4.85 4.89 4.93 4.93 4.91 4.89 4.87 4.84 4.84 4.84 4.85 4.85 4.86 4.88 4.94 5.01 5.07 5.13 5.18 5.22 5.26 5.3 5.34 5.39 5.46 5.53 5.61 5.68 5.74 5.8 5.85 5.9 5.96 6.01 6.06 6.11 6.17 6.22 6.28 6.34 6.41 6.47 6.54 6.6 6.67 6.74 6.81 6.88 6.95 7.03 7.1 7.17 7.24 7.31 7.38 7.45 7.52 7.58 7.65 7.72 7.79 7.86 7.92 8.0 8.08 8.15 8.23 8.31
-99.0 -99.0 -99.0 -99.0 -99.0 -99.0 -99.0 -99.0 -99.0 -99.0 -99.0 -99.0 -99.0 -99.0 -99.0 -99.0 -99.0 -99.0 4.2 4.16 4.08 -99.0 -99.0 -99.0 -99.0 -99.0 -99.0 -99.0 -99.0 -99.0 4.44 4.37 4.31 4.24 4.18 4.14 4.14 4.14 4.14 4.17 4.23 4.29 4.35 4.43 4.51 4.59 4.67 4.75 4.83 4.87 4.87 4.88 4.88 4.89 4.89 4.9 4.9 4.9 4.9 4.92 4.96 5.0 5.03 5.04 5.02 4.99 4.97 4.95 4.93 4.92 4.93 4.93 4.94 4.94 4.95 4.98 5.04 5.1 5.16 5.21 5.25 5.29 5.33 5.37 5.41 5.46 5.53 5.61 5.68 5.74 5.79 5.85 5.9 5.96 6.01 6.06 6.11 6.16 6.22 6.27 6.34 6.4 6.47 6.53 6.6 6.67 6.74 6.81 6.88 6.95 7.02 7.09 7.16 7.23 7.3 7.37 7.44 7.51 7.57 7.64 7.71 7.78 7.85 7.92 8.0 8.08 8.15 8.23 8.31
-99.0 -99.0 -99.0 -99.0 -99.0 -99.0 -99.0 -99.0 -99.0 -99.0 -99.0 -99.0 -99.0 -99.0 -99.0 -99.0 -99.0 -99.0 4.2 4.16 4.08 -99.0 -99.0 -99.0 -99.0 -99.0 -99.0 -99.0 -99.0 -99.0 4.62 4.56 4.49 4.43 4.36 4.3 4.26 4.26 4.26 4.29 4.35 4.42 4.49 4.57 4.65 4.73 4.81 4.89 4.97 5.01 5.02 5.02 5.03 5.03 5.04 5.04 5.04 5.05 5.05 5.07 5.1 5.14 5.14 5.12 5.1 5.08 5.06 5.04 5.02 5.01 5.02 5.02 5.03 5.03 5.04 5.04 5.07 5.13 5.19 5.24 5.28 5.32 5.36 5.4 5.44 5.48 5.53 5.6 5.68 5.74 5.79 5.85 5.9 5.95 6.0 6.06 6.11 6.16 6.21 6.27 6.34 6.4 6.47 6.53 6.6 6.66 6.73 6.8 6.87 6.94 7.01 7.08 7.15 7.22 7.29 7.36 7.43 7.5 7.56 7.63 7.7 7.77 7.84 7.92 8.0 8.08 8.15 8.23 8.31
-99.0 -99.0 -99.0 -99.0 -99.0 -99.0 -99.0 -99.0 -99.0 -99.0 -99.0 -99.0 -99.0 -99.0 -99.0 -99.0 -99.0 -99.0 4.2 4.16 4.08 4.11 -99.0 -99.0 -99.0 -99.0 -99.0 4.75 4.86 4.88 4.81 4.75 4.68 4.62 4.55 4.49 4.42 4.38 4.38 4.42 4.48 4.55 4.63 4.71 4.79 4.87 4.95 5.03 5.11 5.15 5.16 5.16 5.17 5.17 5.18 5.18 5.19 5.19 5.19 5.21 5.25 5.25 5.23 5.21 5.19 5.17 5.15 5.13 5.11 5.1 5.1 5.11 5.11 5.12 5.12 5.13 5.13 5.16 5.22 5.27 5.31 5.35 5.39 5.43 5.47 5.51 5.55 5.6 5.68 5.74 5.79 5.85 5.9 5.95 6.0 6.05 6.11 6.16 6.21 6.27 6.33 6.4 6.46 6.53 6.59 6.66 6.72 6.79 6.86 6.93 7.0 7.07 7.14 7.21 7.28 7.35 7.42 7.49 7.55 7.62 7.69 7.76 7.84 7.92 8.0 8.08 8.16 8.23 8.31
-99.0 -99.0 -99.0 -99.0 -99.0 -99.0 -99.0 -99.0 -99.0 -99.0 -99.0 -99.0 -99.0 -99.0 -99.0 -99.0 -99.0 -99.0 -99.0 4.16 4.19 4.3 -99.0 -99.0 -99.0 -99.0 4.83 4.94 5.05 5.07 5.0 4.94 4.87 4.81 4.74 4.68 4.61 4.55 4.51 4.54 4.61 4.69 4.77 4.85 4.93 5.01 5.09 5.17 5.25 5.29 5.3 5.3 5.31 5.31 5.32 5.32 5.33 5.33 5.34 5.36 5.36 5.34 5.32 5.3 5.28 5.26 5.23 5.21 5.19 5.18 5.19 5.19 5.2 5.2 5.21 5.21 5.22 5.22 5.25 5.3 5.34 5.38 5.42 5.46 5.5 5.54 5.58 5.62 5.67 5.74 5.79 5.84 5.89 5.95 6.0 6.05 6.1 6.15 6.21 6.27 6.33 6.4 6.46 6.53 6.59 6.66 6.72 6.79 6.85 6.92 6.99 7.06 7.13 7.2 7.27 7.34 7.41 7.48 7.54 7.61 7.69 7.76 7.84 7.92 8.0 8.08 8.15 8.23 8.31
-99.0 -99.0 -99.0 -99.0 -99.0 -99.0 -99.0 -99.0 -99.0 -99.0 -99.0 -99.0 -99.0 -99.0 -99.0 -99.0 -99.0 -99.0 -99.0 4.25 4.36 4.47 -99.0 -99.0 -99.0 4.9 5.0 5.11 5.22 5.24 5.17 5.11 5.04 4.98 4.91 4.85 4.78 4.72 4.65 4.67 4.75 4.83 4.91 4.99 5.07 5.15 5.23 5.31 5.39 5.43 5.44 5.44 5.45 5.45 5.46 5.46 5.47 5.47 5.48 5.46 5.44 5.42 5.4 5.38 5.36 5.34 5.32 5.29 5.27 5.27 5.27 5.28 5.28 5.29 5.29 5.3 5.3 5.31 5.31 5.33 5.37 5.41 5.45 5.49 5.53 5.57 5.61 5.65 5.69 5.74 5.79 5.84 5.89 5.94 6.0 6.05 6.1 6.15 6.2 6.26 6.33 6.39 6.46 6.52 6.59 6.65 6.72 6.78 6.85 6.91 6.98 7.05 7.12 7.19 7.26 7.33 7.4 7.46 7.53 7.61 7.68 7.76 7.84 7.92 8.0 8.07 8.15 8.23 8.31
-99.0 -99.0 -99.0 -99.0 -99.0 -99.0 -99.0 -99.0 -99.0 -99.0 -99.0 -99.0 -99.0 -99.0 -99.0 -99.0 -99.0 -99.0 -99.0 4.25 4.36 4.47 4.57 -99.0 4.79 4.9 5.0 5.11 5.22 5.24 5.17 5.11 5.04 4.98 4.91 4.85 4.78 4.72 4.74 4.79 4.84 4.92 5.0 5.08 5.16 5.24 5.32 5.4 5.48 5.52 5.52 5.53 5.53 5.54 5.54 5.55 5.55 5.56 5.54 5.51 5.47 5.45 5.43 5.41 5.39 5.37 5.35 5.33 5.31 5.3 5.3 5.31 5.31 5.32 5.32 5.33 5.33 5.34 5.32 5.33 5.37 5.41 5.45 5.49 5.53 5.57 5.61 5.65 5.68 5.73 5.78 5.83 5.88 5.93 5.99 6.04 6.09 6.14 6.19 6.25 6.31 6.37 6.44 6.5 6.57 6.63 6.7 6.76 6.83 6.89 6.96 7.03 7.1 7.17 7.24 7.31 7.38 7.44 7.51 7.58 7.66 7.74 7.82 7.89 7.97 8.05 8.13 8.21 8.29
-99.0 -99.0 -99.0 -99.0 -99.0 -99.0 -99.0 -99.0 -99.0 -99.0 -99.0 -99.0 -99.0 -99.0 -99.0 -99.0 -99.0 4.2 4.2 4.25 4.36 4.47 4.57 4.68 4.79 4.9 5.0 5.11 5.22 5.24 5.17 5.11 5.04 4.98 4.91 4.85 4.78 4.8 4.88 4.93 4.96 5.0 5.08 5.16 5.24 5.32 5.4 5.48 5.56 5.61 5.61 5.62 5.62 5.63 5.63 5.64 5.64 5.63 5.6 5.56 5.52 5.48 5.46 5.44 5.42 5.4 5.38 5.36 5.34 5.33 5.33 5.34 5.34 5.35 5.35 5.36 5.36 5.35 5.32 5.32 5.36 5.4 5.44 5.48 5.52 5.56 5.6 5.64 5.68 5.72 5.77 5.82 5.87 5.92 5.98 6.03 6.08 6.13 6.18 6.24 6.29 6.35 6.42 6.48 6.55 6.61 6.68 6.74 6.81 6.87 6.94 7.01 7.08 7.15 7.22 7.29 7.36 7.42 7.49 7.56 7.64 7.71 7.79 7.87 7.95 8.03 8.1 8.19 8.28
-99.0 -99.0 -99.0 -99.0 -99.0 -99.0 -99.0 -99.0 -99.0 -99.0 -99.0 -99.0 -99.0 -99.0 4.2 4.2 4.2 4.2 4.2 4.25 4.36 4.47 4.57 4.68 4.79 4.9 5.0 5.11 5.22 5.24 5.17 5.11 5.04 4.98 4.91 4.85 4.87 4.95 5.03 5.08 5.1 5.13 5.17 5.25 5.33 5.41 5.49 5.57 5.65 5.7 5.7 5.71 5.71 5.72 5.72 5.73 5.71 5.68 5.65 5.62 5.57 5.53 5.5 5.47 5.45 5.43 5.41 5.39 5.37 5.36 5.37 5.37 5.38 5.38 5.39 5.39 5.38 5.34 5.31 5.32 5.36 5.4 5.44 5.48 5.52 5.56 5.6 5.63 5.67 5.71 5.76 5.81 5.86 5.91 5.97 6.02 6.07 6.12 6.17 6.23 6.28 6.34 6.4 6.46 6.53 6.59 6.66 6.72 6.79 6.85 6.92 6.99 7.06 7.13 7.2 7.27 7.33 7.4 7.46 7.53 7.61 7.69 7.77 7.85 7.92 8.0 8.09 8.18 8.27
-99.0 -99.0 -99.0 -99.0 -99.0 -99.0 -99.0 -99.0 -99.0 -99.0 -99.0 -99.0 -99.0 -99.0 4.2 4.2 4.2 4.2 4.2 4.25 4.36 4.47 4.57 4.68 4.79 4.9 5.0 5.11 5.22 5.24 5.17 5.11 5.04 4.98 4.91 4.93 5.01 5.09 5.17 5.22 5.25 5.27 5.29 5.34 5.42 5.5 5.58 5.66 5.74 5.78 5.79 5.79 5.8 5.8 5.81 5.79 5.77 5.74 5.71 5.67 5.63 5.59 5.54 5.51 5.49 5.46 5.44 5.42 5.4 5.39 5.4 5.4 5.41 5.41 5.42 5.4 5.37 5.34 5.31 5.31 5.35 5.39 5.43 5.47 5.51 5.55 5.59 5.63 5.66 5.71 5.75 5.8 5.85 5.9 5.96 6.01 6.06 6.11 6.16 6.22 6.27 6.33 6.38 6.44 6.51 6.57 6.64 6.7 6.77 6.83 6.9 6.97 7.04 7.11 7.18 7.24 7.31 7.37 7.44 7.51 7.59 7.67 7.74 7.82 7.9 7.99 8.07 8.16 8.25
-99.0 -99.0 -99.0 -99.0 -99.0 -99.0 -99.0 -99.0 -99.0 4.5 4.44 4.37 -99.0 -99.0 4.2 4.2 4.2 4.2 4.2 4.25 4.36 4.47 4.57 4.68 4.79 4.9 5.0 5.11 5.22 5.24 5.17 5.11 5.04 4.98 5.0 5.08 5.16 5.24 5.31 5.37 5.39 5.41 5.44 5.46 5.51 5.59 5.67 5.75 5.83 5.87 5.88 5.88 5.89 5.89 5.88 5.85 5.82 5.79 5.76 5.73 5.68 5.64 5.6 5.55 5.52 5.5 5.48 5.45 5.43 5.43 5.43 5.44 5.44 5.45 5.43 5.4 5.37 5.34 5.31 5.31 5.35 5.39 5.43 5.47 5.51 5.54 5.58 5.62 5.66 5.7 5.75 5.8 5.85 5.89 5.95 6.0 6.05 6.1 6.15 6.21 6.26 6.32 6.37 6.43 6.49 6.55 6.62 6.68 6.75 6.81 6.88 6.95 7.02 7.09 7.16 7.22 7.29 7.35 7.42 7.49 7.56 7.64 7.72 7.8 7.88 7.97 8.06 8.15 8.24
-99.0 -99.0 -99.0 -99.0 -99.0 -99.0 -99.0 -99.0 -99.0 4.57 4.5 4.44 4.37 4.31 -99.0 -99.0 -99.0 4.2 4.2 4.25 4.36 4.47 4.57 4.68 4.79 4.9 5.0 5.11 5.22 5.24 5.17 5.11 5.04 5.06 5.14 5.22 5.3 5.38 5.46 5.51 5.53 5.56 5.58 5.61 5.63 5.68 5.76 5.84 5.92 5.96 5.96 5.97 5.97 5.96 5.93 5.9 5.88 5.85 5.82 5.78 5.74 5.7 5.65 5.61 5.56 5.53 5.51 5.49 5.47 5.46 5.46 5.47 5.47 5.46 5.43 5.39 5.36 5.33 5.3 5.31 5.35 5.39 5.43 5.46 5.5 5.54 5.57 5.61 5.65 5.69 5.74 5.79 5.84 5.89 5.94 5.99 6.04 6.09 6.14 6.2 6.25 6.31 6.36 6.42 6.47 6.53 6.6 6.66 6.73 6.79 6.86 6.93 7.0 7.07 7.13 7.2 7.26 7.33 7.39 7.46 7.54 7.62 7.7 7.78 7.87 7.96 8.05 8.14 8.23
-99.0 -99.0 -99.0 -99.0 -99.0 4.67 4.67 4.67 4.67 4.64 4.57 4.5 4.44 4.37 -99.0 -99.0 4.2 4.2 4.2 4.25 4.36 4.47 4.57 4.68 4.79 4.9 5.0 5.11 5.22 5.24 5.17 5.11 5.13 5.21 5.29 5.37 5.44 5.52 5.6 5.65 5.68 5.7 5.73 5.75 5.77 5.8 5.84 5.92 6.0 6.05 6.05 6.06 6.04 6.01 5.99 5.96 5.93 5.9 5.87 5.84 5.79 5.75 5.71 5.66 5.62 5.57 5.54 5.52 5.5 5.49 5.49 5.5 5.48 5.45 5.42 5.39 5.36 5.33 5.3 5.3 5.34 5.38 5.42 5.46 5.49 5.53 5.57 5.6 5.64 5.68 5.73 5.78 5.83 5.88 5.93 5.98 6.03 6.08 6.13 6.19 6.24 6.3 6.35 6.41 6.46 6.52 6.58 6.64 6.71 6.77 6.84 6.91 6.98 7.04 7.11 7.17 7.24 7.3 7.37 7.44 7.52 7.59 7.68 7.77 7.86 7.95 8.04 8.12 8.21
-99.0 -99.0 -99.0 4.73 4.73 4.73 4.73 4.73 4.73 4.7 4.64 4.57 4.5 4.44 4.37 4.31 4.24 4.2 4.2 4.25 4.36 4.47 4.57 4.68 4.79 4.9 5.0 5.11 5.22 5.24 5.17 5.19 5.27 5.35 5.43 5.51 5.59 5.67 5.75 5.8 5.82 5.85 5.87 5.89 5.92 5.94 5.97 6.01 6.09 6.14 6.14 6.13 6.1 6.07 6.04 6.01 5.99 5.96 5.93 5.89 5.85 5.81 5.76 5.72 5.67 5.63 5.59 5.55 5.53 5.52 5.53 5.51 5.48 5.45 5.42 5.39 5.36 5.32 5.29 5.3 5.34 5.38 5.41 5.45 5.49 5.52 5.56 5.6 5.63 5.68 5.73 5.78 5.82 5.87 5.92 5.97 6.02 6.07 6.12 6.18 6.23 6.29 6.34 6.4 6.45 6.51 6.56 6.62 6.69 6.75 6.82 6.89 6.95 7.02 7.08 7.15 7.21 7.28 7.34 7.41 7.49 7.58 7.67 7.76 7.84 7.93 8.02 8.11 8.2
-99.0 -99.0 -99.0 4.8 4.8 4.8 4.8 4.8 4.8 4.77 4.7 4.64 4.57 4.5 4.44 4.37 4.31 4.24 4.2 4.25 4.36 4.47 4.57 4.68 4.79 4.9 5.0 5.11 5.22 5.24 5.26 5.34 5.42 5.5 5.57 5.65 5.73 5.81 5.89 5.94 5.97 5.99 6.01 6.04 6.06 6.09 6.11 6.13 6.18 6.22 6.21 6.18 6.15 6.12 6.1 6.07 6.04 6.01 5.98 5.95 5.9 5.86 5.82 5.77 5.73 5.68 5.64 5.6 5.56 5.55 5.54 5.51 5.48 5.44 5.41 5.38 5.35 5.32 5.29 5.29 5.33 5.37 5.41 5.44 5.48 5.52 5.55 5.59 5.63 5.67 5.72 5.77 5.82 5.87 5.92 5.96 6.01 6.06 6.11 6.17 6.22 6.28 6.33 6.39 6.44 6.5 6.55 6.61 6.67 6.73 6.8 6.86 6.93 6.99 7.06 7.12 7.19 7.25 7.32 7.39 7.48 7.56 7.65 7.74 7.83 7.92 8.01 8.1 8.19
-99.0 4.86 4.86 4.86 4.86 4.86 4.86 4.86 4.86 4.85 4.78 4.71 4.65 4.58 4.52 4.45 4.38 4.32 4.25 4.27 4.38 4.49 4.59 4.7 4.81 4.91 5.02 5.13 5.24 5.32 5.4 5.47 5.55 5.63 5.71 5.79 5.87 5.95 6.03 6.08 6.1 6.13 6.15 6.18 6.2 6.22 6.25 6.27 6.3 6.29 6.26 6.23 6.2 6.17 6.15 6.12 6.09 6.06 6.03 6.0 5.95 5.91 5.87 5.82 5.78 5.73 5.69 5.65 5.6 5.57 5.53 5.5 5.47 5.44 5.41 5.38 5.35 5.32 5.29 5.29 5.33 5.36 5.4 5.44 5.47 5.51 5.55 5.59 5.62 5.66 5.71 5.76 5.81 5.86 5.91 5.96 6.01 6.06 6.1 6.16 6.21 6.27 6.32 6.38 6.43 6.49 6.54 6.6 6.65 6.71 6.78 6.84 6.91 6.97 7.04 7.1 7.17 7.23 7.3 7.37 7.46 7.55 7.64 7.73 7.82 7.91 7.99 8.08 8.17
-99.0 4.81 4.81 4.81 4.81 -99.0 4.81 4.81 4.84 4.92 4.97 4.91 4.84 4.77 4.71 4.64 4.58 4.51 4.44 4.46 4.57 4.68 4.78 4.89 5.0 5.11 5.21 5.32 5.4 5.43 5.47 5.54 5.62 5.7 5.78 5.86 5.94 6.02 6.1 6.15 6.17 6.2 6.22 6.24 6.27 6.29 6.32 6.34 6.33 6.29 6.26 6.23 6.21 6.18 6.15 6.12 6.09 6.07 6.04 6.0 5.96 5.91 5.87 5.83 5.78 5.74 5.69 5.65 5.61 5.58 5.55 5.52 5.49 5.45 5.42 5.39 5.36 5.33 5.3 5.3 5.33 5.37 5.41 5.45 5.48 5.52 5.56 5.59 5.62 5.66 5.7 5.75 5.8 5.85 5.9 5.95 6.0 6.05 6.1 6.15 6.2 6.26 6.31 6.37 6.42 6.48 6.53 6.59 6.64 6.7 6.77 6.83 6.9 6.96 7.03 7.09 7.16 7.22 7.29 7.35 7.43 7.52 7.61 7.7 7.78 7.87 7.96 8.05 8.14
-99.0 4.77 4.77 4.77 4.77 4.77 4.77 4.8 4.84 4.92 5.05 5.1 5.03 4.96 4.9 4.83 4.77 4.7 4.63 4.65 4.76 4.87 4.98 5.08 5.19 5.3 5.4 5.48 5.54 5.57 5.58 5.61 5.69 5.77 5.85 5.93 6.01 6.09 6.17 6.22 6.24 6.27 6.29 6.31 6.34 6.36 6.39 6.37 6.33 6.3 6.27 6.24 6.21 6.18 6.15 6.12 6.1 6.07 6.04 6.0 5.96 5.92 5.87 5.83 5.78 5.74 5.7 5.66 5.62 5.59 5.56 5.53 5.5 5.47 5.44 5.41 5.37 5.34 5.3 5.31 5.34 5.38 5.42 5.45 5.49 5.53 5.56 5.59 5.61 5.65 5.7 5.75 5.79 5.84 5.89 5.94 5.99 6.04 6.09 6.14 6.2 6.25 6.31 6.36 6.42 6.47 6.53 6.58 6.64 6.7 6.76 6.82 6.89 6.95 7.02 7.08 7.15 7.21 7.28 7.34 7.41 7.49 7.57 7.66 7.75 7.84 7.93 8.02 8.11
-99.0 4.73 4.73 4.73 4.73 4.73 4.76 4.8 4.84 4.92 5.05 5.17 5.22 5.16 5.09 5.02 4.96 4.89 4.83 4.85 4.95 5.06 5.17 5.27 5.38 5.49 5.57 5.63 5.69 5.72 5.72 5.73 5.76 5.84 5.92 6.0 6.08 6.16 6.24 6.29 6.31 6.34 6.36 6.38 6.41 6.43 6.42 6.38 6.34 6.3 6.27 6.24 6.21 6.18 6.16 6.13 6.1 6.07 6.04 6.01 5.96 5.92 5.88 5.83 5.79 5.74 5.71 5.67 5.64 5.6 5.57 5.54 5.51 5.48 5.45 5.42 5.38 5.35 5.31 5.31 5.35 5.39 5.42 5.46 5.5 5.54 5.56 5.58 5.6 5.64 5.69 5.74 5.79 5.84 5.88 5.93 5.98 6.03 6.08 6.13 6.19 6.24 6.3 6.35 6.41 6.46 6.52 6.58 6.63 6.69 6.75 6.81 6.88 6.94 7.01 7.07 7.14 7.2 7.27 7.33 7.4 7.47 7.54 7.63 7.72 7.81 7.9 7.99 8.08
-99.0 4.69 4.69 4.69 4.69 4.71 4.76 4.8 4.84 4.92 5.05 5.17 5.3 5.35 5.28 5.21 5.15 5.08 5.02 5.04 5.14 5.25 5.36 5.46 5.57 5.65 5.71 5.77 5.83 5.86 5.87 5.87 5.88 5.91 5.99 6.07 6.15 6.23 6.31 6.36 6.38 6.41 6.43 6.46 6.48 6.46 6.42 6.38 6.34 6.31 6.28 6.25 6.22 6.19 6.16 6.13 6.1 6.07 6.05 6.01 5.97 5.92 5.88 5.83 5.79 5.75 5.72 5.68 5.65 5.62 5.59 5.56 5.52 5.49 5.46 5.43 5.39 5.36 5.32 5.32 5.36 5.4 5.43 5.47 5.51 5.53 5.55 5.58 5.6 5.63 5.68 5.73 5.78 5.83 5.88 5.93 5.97 6.02 6.07 6.12 6.18 6.23 6.29 6.34 6.4 6.46 6.51 6.57 6.63 6.69 6.75 6.81 6.87 6.93 7.0 7.06 7.13 7.19 7.26 7.32 7.39 7.46 7.52 7.6 7.69 7.78 7.87 7.96 8.04
-99.0 4.65 4.65 4.65 4.67 4.71 4.76 4.8 4.84 4.92 5.05 5.17 5.3 5.42 5.47 5.41 5.34 5.27 5.21 5.23 5.33 5.44 5.55 5.66 5.73 5.79 5.85 5.91 5.97 6.01 6.01 6.02 6.02 6.03 6.06 6.14 6.22 6.3 6.38 6.43 6.45 6.48 6.5 6.53 6.51 6.47 6.43 6.39 6.35 6.32 6.28 6.25 6.22 6.19 6.16 6.13 6.11 6.08 6.05 6.01 5.97 5.93 5.88 5.84 5.8 5.77 5.73 5.7 5.66 5.63 5.6 5.57 5.54 5.51 5.47 5.44 5.4 5.36 5.33 5.33 5.37 5.4 5.44 5.48 5.5 5.53 5.55 5.57 5.59 5.62 5.67 5.72 5.77 5.82 5.87 5.92 5.97 6.02 6.06 6.12 6.17 6.23 6.28 6.34 6.39 6.45 6.51 6.56 6.62 6.68 6.74 6.8 6.86 6.92 6.99 7.05 7.12 7.18 7.25 7.31 7.38 7.45 7.51 7.58 7.66 7.75 7.83 7.92 8.01
-99.0 4.6 4.6 4.63 4.67 4.71 4.76 4.8 4.84 4.92 5.05 5.17 5.3 5.42 5.55 5.6 5.53 5.46 5.4 5.42 5.53 5.63 5.74 5.82 5.88 5.94 6.0 6.06 6.12 6.15 6.16 6.16 6.17 6.17 6.18 6.21 6.29 6.37 6.45 6.5 6.52 6.55 6.57 6.56 6.52 6.48 6.44 6.4 6.36 6.32 6.29 6.26 6.23 6.2 6.17 6.14 6.11 6.08 6.05 6.02 5.97 5.93 5.88 5.85 5.81 5.78 5.74 5.71 5.68 5.64 5.61 5.58 5.55 5.52 5.48 5.44 5.41 5.37 5.34 5.34 5.37 5.41 5.45 5.48 5.5 5.52 5.54 5.56 5.58 5.62 5.66 5.71 5.76 5.81 5.86 5.91 5.96 6.01 6.06 6.11 6.16 6.22 6.27 6.33 6.39 6.44 6.5 6.56 6.61 6.67 6.73 6.8 6.86 6.92 6.98 7.04 7.11 7.17 7.24 7.3 7.37 7.44 7.5 7.57 7.64 7.71 7.8 7.89 7.98
-99.0 4.56 4.59 4.63 4.67 4.71 4.76 4.8 4.84 4.92 5.05 5.17 5.3 5.42 5.55 5.67 5.72 5.66 5.59 5.61 5.72 5.82 5.9 5.96 6.02 6.08 6.14 6.2 6.26 6.29 6.3 6.3 6.31 6.31 6.32 6.32 6.36 6.44 6.52 6.57 6.59 6.62 6.6 6.56 6.52 6.48 6.44 6.4 6.36 6.33 6.3 6.27 6.23 6.2 6.17 6.14 6.11 6.08 6.06 6.02 5.98 5.93 5.89 5.86 5.83 5.79 5.76 5.72 5.69 5.66 5.63 5.59 5.56 5.52 5.49 5.45 5.42 5.38 5.34 5.35 5.38 5.42 5.45 5.47 5.49 5.51 5.53 5.55 5.57 5.61 5.66 5.71 5.75 5.8 5.85 5.9 5.95 6.0 6.05 6.1 6.16 6.21 6.27 6.32 6.38 6.44 6.49 6.55 6.61 6.67 6.73 6.79 6.85 6.91 6.97 7.03 7.1 7.16 7.23 7.29 7.36 7.43 7.49 7.56 7.63 7.69 7.77 7.86 7.95
4.52 4.54 4.59 4.63 4.67 4.71 4.76 4.8 4.84 4.92 5.05 5.17 5.3 5.42 5.55 5.67 5.8 5.85 5.78 5.8 5.91 5.99 6.05 6.11 6.17 6.23 6.29 6.35 6.41 6.44 6.44 6.45 6.45 6.46 6.46 6.47 6.47 6.51 6.59 6.64 6.66 6.65 6.61 6.57 6.53 6.49 6.45 6.41 6.37 6.33 6.3 6.27 6.24 6.21 6.18 6.15 6.12 6.09 6.06 6.02 5.98 5.94 5.91 5.87 5.84 5.8 5.77 5.74 5.7 5.67 5.64 5.6 5.57 5.53 5.5 5.46 5.42 5.39 5.35 5.35 5.39 5.42 5.44 5.46 5.48 5.5 5.52 5.54 5.56 5.6 5.65 5.7 5.75 5.8 5.84 5.89 5.94 5.99 6.04 6.09 6.15 6.2 6.26 6.32 6.37 6.43 6.49 6.55 6.6 6.66 6.72 6.78 6.84 6.91 6.97 7.03 7.09 7.15 7.22 7.28 7.35 7.42 7.48 7.55 7.62 7.68 7.75 7.83 7.92
4.5 4.55 4.59 4.63 4.67 4.71 4.76 4.8 4.84 4.92 5.05 5.17 5.3 5.42 5.55 5.67 5.8 5.92 5.97 5.99 6.07 6.13 6.19 6.25 6.31 6.37 6.43 6.49 6.55 6.58 6.59 6.59 6.6 6.6 6.61 6.61 6.62 6.62 6.66 6.71 6.69 6.65 6.61 6.57 6.53 6.49 6.45 6.41 6.37 6.34 6.31 6.28 6.25 6.22 6.18 6.15 6.12 6.09 6.06 6.03 5.99 5.95 5.92 5.89 5.85 5.82 5.78 5.75 5.72 5.68 5.65 5.61 5.58 5.54 5.5 5.47 5.43 5.4 5.36 5.36 5.39 5.41 5.43 5.45 5.47 5.49 5.51 5.54 5.56 5.59 5.64 5.69 5.74 5.79 5.84 5.89 5.93 5.98 6.03 6.08 6.14 6.2 6.25 6.31 6.37 6.43 6.48 6.54 6.6 6.66 6.72 6.78 6.84 6.9 6.96 7.02 7.08 7.14 7.21 7.27 7.34 7.41 7.47 7.54 7.61 7.67 7.74 7.81 7.88
