ncols         129
nrows         91
xllcorner     -80.95
yllcorner     32.02
cellsize      0.05
NODATA_value  -99999
853 474 490 407 387 373 362 339 497 469 400 322 350 319 357 341 305 275 293 260 283 291 235 207 213 171 172 177 156 165 187 168 147 155 115 151 154 173 157 120 130 130 136 162 135 119 116 100 105 101 112 112 93 106 79 92 68 86 63 70 74 80 90 102 83 72 54 50 41 44 40 27 19 14 19 12 12 22 25 25 10 13 15 28 27 25 19 19 19 18 20 20 14 16 8 3 1 6 -2 1 5 5 -11 -17 -21 -23 -23 -23 -22 -26 -20 -24 -30 -28 -27 -37 -28 -30 -32 -39 -42 -37 -44 -83 -253 -927 -1168 -1529 -1808
657 493 408 386 366 375 330 329 411 385 364 332 305 268 349 290 321 335 309 241 276 227 191 183 178 178 207 197 180 209 142 159 166 144 155 161 153 127 142 119 157 136 164 150 154 132 121 131 128 127 129 93 114 112 112 107 76 82 92 89 68 87 73 44 44 50 37 47 47 44 45 40 38 34 25 27 20 8 14 14 9 22 16 23 16 14 17 19 22 20 20 18 17 6 7 3 6 5 -2 -2 2 -2 -11 -18 -18 -22 -23 -22 -23 -27 -28 -21 -20 -28 -27 -32 -29 -35 -34 -41 -37 -36 -51 -93 -277 -740 -1271 -1644 -1797
476 404 410 361 350 357 336 330 363 331 371 319 286 252 279 315 267 281 252 242 231 219 192 193 228 231 226 195 164 182 182 170 177 170 180 145 172 150 187 166 183 143 194 188 148 148 132 156 134 124 123 93 105 118 127 129 130 113 114 91 101 104 72 81 77 56 39 35 35 39 43 42 38 37 35 29 27 26 19 11 10 13 18 11 18 25 17 16 19 19 5 5 9 5 5 4 3 4 3 -2 -2 -2 -5 -15 -16 -19 -32 -22 -24 -26 -27 -26 -28 -29 -30 -32 -33 -35 -38 -36 -34 -43 -71 -133 -678 -1127 -1610 -1738 -1798
471 394 375 402 368 318 369 316 288 334 345 377 370 568 305 298 248 248 199 177 180 187 208 237 251 214 220 202 173 215 186 178 148 187 174 178 177 179 203 212 204 170 182 175 156 170 151 158 147 139 114 115 137 121 115 100 106 113 100 89 73 99 91 89 66 51 45 24 27 36 35 29 33 23 30 30 22 26 21 18 19 9 10 9 9 15 19 21 18 16 14 8 6 9 8 9 4 5 6 2 -2 -2 3 -13 -16 -21 -20 -24 -24 -25 -24 -28 -29 -30 -31 -29 -34 -34 -36 -40 -42 -49 -79 -147 -608 -1152 -1619 -1822 -1879
384 408 353 345 333 308 353 311 307 545 317 306 332 313 295 274 220 218 188 247 224 227 248 252 233 247 230 222 208 191 201 211 179 160 199 189 190 182 199 197 192 163 188 156 145 141 162 148 142 145 131 148 130 129 123 104 82 102 99 83 74 87 83 90 59 43 34 17 20 20 26 28 29 29 21 25 22 17 19 19 19 17 11 10 11 6 19 18 11 6 6 6 5 7 7 6 4 4 5 4 8 -2 -2 -13 -14 -18 -22 -26 -24 -25 -27 -28 -29 -30 -31 -27 -30 -38 -37 -40 -43 -59 -84 -189 -776 -1144 -1388 -1811 -1884
379 342 320 306 318 310 268 277 289 275 265 320 322 256 252 204 202 236 237 278 254 267 243 250 249 218 223 218 234 225 219 221 191 196 192 208 196 194 193 184 166 171 173 169 153 145 142 134 118 126 125 136 111 104 102 88 90 86 67 97 82 59 72 67 51 45 39 24 23 16 13 29 25 26 25 24 24 21 17 19 18 21 18 25 24 2 15 18 9 5 10 5 5 8 5 -3 1 4 7 2 4 -2 -2 -8 -11 -17 -18 -24 -24 -27 -28 -26 -30 -30 -31 -33 -36 -34 -40 -41 -39 -68 -95 -185 -837 -1146 -1380 -1637 -1737
343 290 281 299 318 312 292 332 278 290 265 310 277 286 251 238 230 262 257 287 275 239 255 244 250 237 226 216 225 208 212 196 205 228 208 203 233 204 191 203 163 150 163 157 151 135 137 114 129 100 129 127 136 110 121 103 68 89 62 92 73 67 69 46 39 30 37 33 36 24 23 18 21 27 27 25 28 27 29 19 25 21 19 20 10 12 15 13 10 7 13 10 7 5 5 4 1 2 2 6 -2 5 -2 1 -14 -16 -20 -38 -24 -27 -29 -29 -31 -30 -30 -33 -35 -38 -40 -34 -44 -75 -89 -168 -789 -1276 -1078 -1300 -1519
326 330 367 375 308 275 296 280 284 278 254 287 268 268 278 288 273 260 276 271 249 255 254 240 225 229 224 223 206 207 186 198 215 203 202 214 212 203 188 196 161 141 136 140 137 127 111 116 103 113 104 118 90 123 104 103 91 97 83 59 46 53 55 45 38 33 24 33 36 38 24 15 15 18 29 26 32 27 22 21 24 21 26 21 -2 11 17 7 8 7 4 6 4 5 6 4 3 2 -2 12 -2 6 -2 -2 -13 -16 -22 -21 -24 -25 -27 -32 -31 -32 -26 -32 -35 -36 -40 -36 -50 -78 -95 -245 -755 -1205 -1539 -1495 -1522
373 334 344 297 282 303 263 272 265 251 257 271 240 290 289 275 279 304 286 270 267 255 258 262 238 230 221 234 207 186 181 197 196 179 207 207 212 187 178 175 160 123 95 119 118 117 119 134 141 126 95 89 73 103 97 97 96 79 69 72 70 51 49 34 35 28 25 26 30 28 33 23 13 11 22 26 22 25 24 25 30 26 25 23 -2 5 6 17 11 15 6 -2 9 9 -2 6 1 1 -3 -4 -4 -2 7 -2 1 -18 -21 -21 -30 -23 -26 -28 -33 -35 -28 -24 -37 -35 -39 -40 -57 -78 -104 -253 -838 -1122 -1364 -1733 -1788
335 333 316 296 267 274 264 264 252 249 272 249 252 269 244 278 278 280 281 280 264 288 245 239 247 226 221 218 205 200 197 172 170 203 220 198 199 185 174 181 134 115 83 98 97 95 110 142 152 106 118 110 99 62 102 104 95 93 76 82 51 49 47 40 35 38 38 28 21 31 29 29 30 14 11 21 19 25 17 18 20 17 23 16 8 7 6 6 6 10 10 9 8 -4 -2 -4 -5 -5 -5 -5 -5 -5 -2 -2 10 -8 -20 -22 -26 -21 -23 -24 -30 -34 -28 -35 -35 -34 -33 -39 -64 -78 -102 -305 -796 -1247 -1524 -1627 -1763
361 315 282 262 298 253 258 250 248 243 234 248 239 262 257 253 276 265 272 266 257 264 238 226 227 210 221 177 181 167 182 174 188 180 212 216 220 196 148 154 125 109 108 96 97 83 111 114 139 132 112 87 91 69 87 88 96 67 81 71 52 57 45 42 38 27 33 29 20 34 26 30 28 18 11 14 19 19 24 15 20 19 19 17 13 -4 1 8 7 13 -6 -6 -5 -6 -5 -6 -5 -5 -4 -5 -4 -3 -4 -2 -2 5 -17 -19 -20 -20 -21 -23 -29 -31 -31 -34 -34 -29 -38 -41 -64 -86 -98 -355 -810 -1229 -1603 -1735 -1773
364 302 282 282 248 281 266 217 225 261 230 241 215 242 253 253 274 245 266 259 236 244 263 260 239 226 218 205 191 190 194 177 176 201 184 198 170 173 134 95 118 117 98 99 86 120 92 110 113 117 120 117 94 75 71 100 85 80 66 54 50 42 41 31 25 21 21 21 18 24 28 29 25 27 23 13 14 20 20 18 11 16 12 14 13 -2 -5 -6 -6 -7 -4 -4 -6 -5 -2 6 9 5 -5 -3 -4 -3 -3 -2 -2 -2 -8 -21 -21 -19 -17 -20 -31 -28 -38 -34 -34 -36 -31 -47 -72 -90 -104 -423 -928 -1426 -1507 -1708 -1861
301 272 262 277 273 247 241 246 213 215 238 212 241 254 267 234 240 246 272 254 235 228 248 244 231 228 218 210 199 214 262 177 160 176 168 172 165 157 99 86 103 99 122 132 135 117 121 80 94 103 110 113 101 84 72 57 74 63 65 47 52 46 34 34 33 31 25 17 13 17 27 30 26 25 28 13 14 11 14 16 13 9 12 14 1 2 -2 3 3 9 7 3 4 3 14 13 12 5 -2 -2 -2 -2 4 -2 -2 -2 -2 -17 -14 -17 -18 -21 -28 -27 -32 -30 -32 -31 -40 -51 -45 -90 -115 -556 -1027 -1378 -1634 -1817 -1968
246 252 235 231 239 250 217 229 230 229 228 211 251 257 242 231 243 257 256 245 239 232 215 221 230 228 209 221 237 199 176 206 158 141 154 164 158 147 129 79 97 92 117 121 140 140 135 93 68 82 118 83 102 95 104 88 79 52 62 55 44 48 45 36 31 27 35 35 14 18 19 25 24 31 23 22 12 11 11 8 9 8 8 8 5 7 5 7 4 5 2 2 9 6 7 4 12 9 -3 8 13 2 5 5 -2 1 -2 -4 -10 -19 -25 -20 -22 -24 -26 -33 -31 -35 -43 -53 -69 -90 -389 -971 -1453 -1611 -1771 -1876 -1972
280 277 262 237 244 236 217 213 234 205 209 226 245 237 219 214 242 275 249 213 217 240 214 222 250 217 185 229 204 203 204 176 176 171 134 144 171 150 86 70 91 108 107 101 101 81 88 95 65 102 99 96 100 87 97 71 86 68 56 44 47 48 38 41 34 31 30 29 20 16 17 23 29 24 21 24 22 25 9 5 7 8 17 13 11 17 12 4 4 4 5 2 2 9 8 8 15 7 -2 -2 9 12 4 1 -2 -2 2 -2 -12 -19 -24 -18 -31 -28 -31 -24 -31 -36 -45 -51 -68 -72 -544 -1148 -1173 -1604 -1688 -1619 -1750
281 271 243 258 247 226 239 215 209 216 234 236 212 231 208 254 249 229 189 182 215 189 210 226 201 202 188 209 208 193 184 195 175 160 166 139 142 147 77 95 108 115 105 152 142 123 93 64 77 95 85 98 71 86 88 68 69 70 58 52 46 43 37 26 28 37 28 19 15 16 19 18 23 23 18 20 24 15 6 13 12 16 20 21 12 8 6 4 3 2 2 3 9 5 7 2 5 8 -3 8 3 13 12 13 -2 -2 -2 -2 -4 -20 -18 -18 -26 -32 -35 -33 -31 -35 -46 -51 -64 -94 -691 -1045 -1356 -1104 -1341 -1575 -1744
283 269 235 231 225 242 248 211 241 217 209 228 200 213 226 261 264 226 236 152 173 175 231 234 198 149 162 200 186 205 170 187 191 161 158 148 149 138 68 93 96 108 133 126 134 122 104 67 59 72 68 87 101 65 72 67 84 64 55 39 47 39 38 41 42 35 33 23 14 14 18 15 20 19 19 13 15 17 14 13 19 26 21 14 7 6 5 6 7 7 2 9 11 6 7 6 2 10 -2 9 8 12 11 12 1 -2 -2 -2 -2 -15 -13 -15 -16 -31 -33 -34 -29 -40 -46 -49 -60 -80 -222 -918 -1159 -1474 -1588 -1663 -1816
266 264 270 260 245 230 215 243 228 209 223 214 202 219 211 210 251 216 185 161 142 196 257 250 194 168 146 189 187 204 190 164 154 129 143 149 149 68 101 80 101 100 118 128 108 83 92 112 109 81 69 100 82 68 74 65 50 60 37 40 32 33 35 30 38 35 35 30 31 8 14 13 12 16 12 9 13 19 17 20 22 22 23 15 5 3 6 6 5 6 7 10 7 5 2 3 3 6 -2 6 12 4 4 1 2 -3 -4 -2 -2 -3 -21 -24 -25 -29 -36 -34 -34 -38 -43 -50 -57 -73 -127 -786 -1417 -1625 -1816 -1713 -2179
244 270 275 264 250 241 230 237 229 242 248 210 215 194 222 235 209 214 176 140 193 239 249 192 169 174 152 144 153 174 160 152 157 119 115 106 98 82 69 84 74 104 132 128 88 102 111 84 79 97 91 56 76 72 52 61 61 61 38 29 38 23 24 33 38 28 29 31 29 27 11 8 11 11 12 9 16 9 20 19 28 20 18 7 4 5 3 4 3 6 10 9 2 3 1 2 2 10 8 9 4 2 5 8 -2 -3 -3 -3 -2 1 -15 -22 -31 -26 -34 -35 -36 -39 -43 -49 -53 -67 -87 -767 -1493 -1668 -1823 -2059 -2133
232 255 252 264 257 260 246 226 250 240 237 220 218 208 184 193 198 216 185 150 204 248 233 225 192 172 145 152 147 164 145 124 129 83 85 81 95 60 67 79 79 105 128 124 113 98 83 89 81 79 79 73 48 63 57 46 60 61 41 30 37 32 21 21 36 30 21 28 22 27 24 20 17 14 9 6 5 10 15 22 23 16 15 5 10 5 4 2 3 7 6 10 7 10 6 8 9 2 2 -2 2 -2 -2 -2 -2 -4 -4 -4 -3 -2 -14 -13 -29 -23 -32 -34 -35 -39 -36 -46 -49 -54 -79 -603 -1444 -1835 -2052 -2081 -2166
233 237 240 239 235 270 252 223 237 251 228 216 227 215 186 189 224 214 196 140 258 239 203 227 159 136 140 119 144 142 134 112 79 75 90 93 84 72 67 68 95 106 107 104 89 75 89 85 57 64 59 45 45 56 53 58 58 49 43 43 37 40 34 21 28 27 20 19 15 23 22 22 26 22 10 11 8 4 7 10 16 14 7 8 6 4 -2 -2 2 -2 19 6 5 3 4 2 1 2 1 3 -2 -3 -4 -4 -4 -3 -4 -5 -2 -2 -9 -18 -22 -27 -30 -34 -34 -37 -40 -44 -47 -49 -289 -863 -1452 -1721 -2060 -2213 -2334
231 246 233 227 215 243 243 205 235 232 219 210 225 206 184 177 197 187 167 168 200 222 198 192 157 169 130 114 104 99 92 89 103 101 112 110 97 121 125 67 87 106 82 89 83 84 67 66 66 66 69 42 52 56 48 48 42 47 41 40 39 34 32 30 12 19 24 18 20 23 19 20 18 15 18 19 23 11 11 3 8 13 8 7 5 3 8 -4 9 5 6 13 5 8 1 1 1 2 2 1 -4 -4 -4 -5 -6 -6 -5 -5 -2 1 -16 -20 -22 -26 -30 -32 -33 -34 -39 -34 -43 -51 -178 -877 -1551 -1765 -2021 -2168 -2236
231 221 237 223 216 208 205 209 196 220 189 222 193 180 209 209 174 178 128 214 244 195 186 190 177 149 133 130 127 124 86 103 92 111 147 130 121 101 138 107 104 96 62 73 75 91 82 87 71 58 60 47 33 39 38 35 42 41 27 42 37 40 35 35 24 37 18 9 13 8 19 17 14 11 18 20 20 17 16 10 12 -3 -4 14 6 6 9 -3 5 2 3 3 4 4 2 3 11 6 3 -3 -4 -5 -5 -6 -6 -5 -5 -4 -3 -4 -16 -22 -24 -26 -31 -30 -32 -32 -38 -38 -44 -87 -323 -1279 -1687 -2041 -2174 -2246 -2330
212 237 242 235 189 207 200 181 200 209 171 184 191 193 175 164 171 187 114 230 192 159 153 183 158 145 144 158 147 98 97 102 104 145 131 120 99 101 88 88 76 68 72 49 60 71 70 76 65 64 43 38 36 33 32 30 27 29 23 36 37 28 34 36 36 32 22 21 22 12 24 9 10 11 10 17 16 14 20 11 15 22 5 3 -4 -4 -3 2 -4 1 -2 -2 1 8 2 4 8 1 -2 -3 -5 -5 -5 -5 -5 -6 -5 -4 -2 -5 -13 -22 -24 -26 -29 -28 -27 -32 -36 -45 -71 -589 -864 -1507 -2054 -2074 -2373 -2407 -2437
224 228 248 221 203 192 174 207 182 201 195 198 175 180 156 163 168 101 198 213 174 159 152 188 188 180 178 163 118 134 131 160 135 126 109 117 98 82 82 88 55 51 50 46 37 57 57 73 59 67 54 38 43 47 43 45 37 50 21 18 35 34 30 31 28 33 30 20 19 11 7 6 11 10 9 8 17 14 21 18 17 16 5 9 8 5 7 -2 -3 -6 -5 -2 -3 -2 -2 -2 -2 -2 -3 -5 -6 -6 -5 -5 -5 -4 -4 -2 -2 -10 -16 -23 -23 -24 -30 -29 -28 -32 -44 -78 -146 -683 -1406 -1773 -2109 -2226 -2440 -2472 -2564
235 239 240 233 221 221 187 201 175 160 204 202 167 143 142 173 122 119 174 147 129 152 148 204 211 185 194 162 150 149 124 117 121 87 107 106 106 97 98 87 73 74 59 44 35 44 54 55 68 54 46 45 59 59 44 47 34 42 55 48 18 17 33 31 30 30 35 22 18 8 15 11 14 5 9 6 8 21 15 16 15 12 8 6 9 4 1 3 -2 -2 -5 -3 -2 -3 -3 -2 -3 -3 -4 -6 -6 -6 -4 -4 -3 -2 -2 -2 -2 -14 -17 -20 -24 -23 -25 -29 -32 -29 -80 -159 -661 -1337 -1825 -2062 -2318 -2304 -2451 -2559 -2620
235 219 219 227 237 223 224 206 170 158 191 181 153 134 146 138 105 92 99 135 116 122 113 182 195 168 157 173 137 131 120 126 91 80 95 89 107 102 79 72 65 43 63 38 34 44 44 52 67 63 60 50 54 57 52 45 36 43 47 48 52 23 14 14 14 10 12 14 10 17 13 18 17 5 14 5 4 8 9 14 18 16 9 7 2 5 6 -2 5 -2 -5 -6 -6 -4 -3 -5 -4 -3 -5 -7 -6 -4 -4 -3 -2 -2 2 3 2 -12 -19 -19 -18 -33 -30 -45 -24 -83 -137 -330 -1042 -1744 -2291 -2273 -2419 -2488 -2601 -2643 -2736
212 224 214 228 224 225 226 201 155 166 151 133 125 116 142 116 80 94 119 90 66 73 114 135 186 182 151 141 141 155 142 128 108 98 92 68 81 69 58 50 73 53 40 35 30 46 42 54 61 58 58 48 46 54 48 39 46 47 44 38 44 41 44 33 38 29 24 23 25 18 20 16 11 12 19 9 6 10 13 16 16 17 5 4 5 3 4 -4 -2 -4 -5 -2 -4 -5 -5 -6 -4 -3 -6 -5 -4 -2 -2 2 -4 -14 -14 -15 -9 -6 -14 -21 -22 -20 -20 -40 -84 -164 -346 -871 -1818 -2034 -2344 -2482 -2560 -2619 -2659 -2712 -2800
189 200 210 191 203 236 200 176 177 169 150 158 156 108 118 84 97 64 83 75 64 83 155 150 172 158 155 126 137 129 107 136 102 96 124 105 89 123 101 74 59 67 31 29 44 48 41 57 51 54 56 40 56 53 50 48 35 40 46 48 44 32 35 39 41 33 36 30 18 14 14 21 17 21 14 8 14 4 4 8 12 13 5 5 4 5 6 2 -2 -5 -6 -7 -6 -5 -5 -4 -3 -2 -2 -2 -2 -2 -14 -15 -16 -18 -18 -18 -14 -9 -7 -16 -19 -37 -56 -95 -173 -312 -876 -1701 -2123 -2405 -2546 -2551 -2629 -2725 -2763 -2821 -2872
195 173 172 186 222 221 196 186 191 175 159 149 138 150 133 102 96 78 71 71 76 107 93 143 143 132 131 103 111 123 120 115 99 102 122 107 85 92 82 73 58 59 29 39 41 38 45 53 42 55 55 37 51 48 45 50 48 34 29 45 35 44 24 42 48 36 29 20 25 18 7 8 16 20 15 14 4 8 2 8 8 12 13 11 7 5 2 -3 -5 -2 -2 -4 -6 -6 -6 -4 -2 -2 -2 -4 -14 -17 -19 -19 -21 -24 -24 -28 -25 -27 -21 -33 -52 -69 -81 -163 -335 -630 -1672 -2336 -2457 -2594 -2613 -2687 -2733 -2779 -2843 -2862 -2840
180 190 208 191 208 192 202 181 176 153 155 158 163 147 121 111 82 87 85 88 102 64 105 125 112 110 113 134 124 103 91 102 132 98 91 97 71 73 67 56 64 28 28 41 40 38 44 41 44 51 50 33 52 40 33 46 48 48 40 32 36 23 23 34 43 35 26 17 14 11 18 10 12 6 10 8 18 18 6 -3 -2 13 16 8 7 5 -5 -6 -6 -2 -2 -3 -5 -6 -4 -2 -2 -2 -9 -15 -20 -22 -21 -23 -26 -29 -32 -39 -44 -55 -67 -85 -96 -105 -306 -485 -750 -1085 -2231 -2499 -2567 -2675 -2729 -2736 -2795 -2848 -2869 -2925 -2973
192 165 197 198 175 180 205 190 178 154 170 168 148 129 106 99 95 111 122 146 104 51 78 114 88 79 111 133 130 123 95 96 102 93 82 76 62 64 65 43 59 54 28 44 41 38 39 39 38 48 47 25 46 47 31 43 46 40 39 43 38 17 36 37 31 29 23 25 22 22 17 15 16 8 9 14 14 13 10 12 -4 -4 9 7 -4 -4 1 -2 4 1 1 -2 2 -2 -2 -2 -8 -14 -18 -20 -24 -23 -22 -23 -26 -27 -29 -34 -37 -46 -57 -72 -99 -176 -384 -669 -1084 -1877 -2336 -2523 -2696 -2729 -2777 -2825 -2877 -2893 -2919 -2968 -3028
180 167 176 165 184 188 196 193 180 183 179 160 142 106 99 103 124 138 120 93 135 66 96 69 75 103 118 96 115 95 114 80 79 75 72 71 68 62 59 57 53 42 24 26 36 35 35 24 39 32 44 34 49 43 31 45 33 49 39 44 31 17 23 22 23 34 18 21 21 16 19 17 7 10 20 11 10 9 8 16 6 14 11 -3 -3 5 8 5 4 6 2 -2 1 -2 -2 -12 -14 -19 -20 -22 -25 -23 -24 -26 -28 -32 -33 -41 -48 -68 -60 -127 -195 -350 -724 -1187 -1569 -2481 -2586 -2713 -2782 -2812 -2841 -2898 -2919 -2946 -2973 -3008 -3051
187 152 170 219 195 185 202 200 211 194 173 153 148 110 113 133 145 137 96 94 116 75 66 93 108 100 111 98 93 94 81 74 75 74 70 68 61 58 55 54 48 50 30 29 35 34 36 31 26 39 31 35 43 25 30 37 40 40 33 24 25 15 10 20 19 28 32 11 12 16 15 16 17 13 3 16 10 8 9 16 11 15 8 6 8 4 9 3 5 2 1 5 2 -2 -13 -18 -20 -22 -24 -25 -25 -24 -24 -24 -31 -35 -41 -46 -58 -42 -134 -206 -324 -604 -952 -1533 -2249 -2630 -2592 -2786 -2835 -2885 -2916 -2936 -2974 -3000 -3009 -3057 -3086
197 149 173 173 197 177 200 187 181 176 163 152 130 120 96 109 114 125 103 83 73 99 82 81 97 102 90 98 69 79 65 66 71 69 67 64 59 58 54 53 48 45 39 27 34 34 29 34 29 23 35 18 34 15 29 40 33 32 29 28 28 21 9 18 28 24 23 27 16 10 16 16 17 13 6 3 11 8 8 19 12 13 8 12 7 5 1 3 2 3 1 -2 -4 -16 -19 -20 -22 -26 -29 -29 -28 -27 -28 -30 -34 -39 -43 -55 -86 -128 -218 -309 -719 -994 -1934 -2267 -2522 -2533 -2799 -2852 -2923 -2909 -2892 -3015 -3017 -3055 -3107 -3104 -3140
168 146 175 152 177 179 200 184 157 159 138 176 145 115 113 93 73 87 95 67 48 87 52 60 79 84 84 76 64 72 67 61 61 64 63 59 54 56 52 46 44 38 40 19 23 29 31 26 30 28 19 30 14 39 33 41 26 20 25 24 10 7 18 15 25 22 24 26 16 10 11 11 10 14 11 -2 6 11 8 11 6 5 9 12 5 1 2 2 1 -2 -2 -2 -15 -18 -19 -22 -26 -29 -31 -30 -30 -31 -32 -33 -39 -44 -49 -64 -170 -220 -301 -1002 -1028 -2195 -2313 -2416 -2456 -2657 -2871 -2888 -2966 -3026 -2989 -2992 -3036 -3147 -3121 -3174 -3194
160 141 158 158 160 174 194 168 159 144 200 169 163 149 115 114 105 75 74 79 46 40 65 50 68 75 73 69 56 63 60 55 58 58 57 53 47 45 48 46 44 35 41 30 23 23 29 24 29 28 26 24 33 16 29 23 23 20 16 16 8 9 8 17 20 25 26 11 10 13 -2 7 5 14 11 13 2 13 10 9 7 8 9 7 3 -2 4 1 4 -2 -2 -14 -18 -21 -20 -23 -29 -31 -29 -32 -32 -34 -38 -38 -41 -49 -60 -122 -323 -290 -817 -871 -2188 -2321 -2511 -2561 -2695 -2828 -2891 -2876 -2977 -3156 -3153 -3055 -3057 -3097 -3167 -3262 -3250
138 142 152 175 171 176 193 152 169 155 147 135 145 126 112 106 79 65 57 42 53 38 33 51 64 61 63 58 60 60 55 52 59 51 53 45 48 43 45 43 46 47 39 39 48 17 24 21 28 23 26 28 27 26 16 26 22 21 15 14 9 7 8 11 7 14 24 18 18 6 1 -2 7 15 6 3 4 8 3 -2 -2 1 -7 -10 -9 -3 -2 -2 2 -2 -12 -17 -21 -23 -25 -29 -32 -33 -34 -36 -37 -38 -40 -44 -53 -69 -123 -211 -276 -738 -682 -1743 -2202 -2369 -2584 -2718 -2769 -2881 -2877 -2901 -2942 -3001 -3035 -3253 -3147 -3150 -3192 -3234 -3338
126 148 145 154 197 204 160 181 183 116 101 115 119 134 124 100 85 76 61 58 70 39 29 31 53 44 57 59 54 54 48 54 51 55 50 44 43 43 40 43 45 39 31 35 44 40 39 18 20 20 26 19 14 25 21 27 21 22 18 17 14 3 9 7 6 9 12 19 18 20 8 3 3 8 7 -1 -2 -8 -14 -13 -14 -15 -14 -14 -15 -14 -15 -12 -2 -9 -15 -19 -22 -27 -29 -33 -36 -35 -37 -38 -40 -42 -47 -54 -68 -121 -199 -259 -580 -632 -1541 -1952 -2332 -2479 -2604 -2734 -2845 -2881 -2916 -2947 -2963 -3007 -3089 -3145 -3376 -3218 -3236 -3257 -3306
141 117 143 163 195 199 170 123 153 145 136 87 113 107 129 109 94 97 65 52 67 55 25 27 42 46 50 50 59 50 37 43 44 49 46 49 43 48 40 34 38 32 36 37 40 39 35 30 17 19 16 17 20 6 29 22 15 21 18 13 14 8 2 6 7 8 13 16 17 16 -2 4 14 4 -6 -13 -15 -14 -14 -15 -16 -16 -17 -16 -16 -17 -17 -15 -2 -12 -17 -22 -24 -29 -34 -36 -37 -36 -38 -41 -44 -48 -56 -65 -122 -188 -252 -407 -469 -1373 -1904 -2326 -2506 -2564 -2707 -2834 -2893 -2912 -2961 -3000 -3029 -3053 -3108 -3176 -3220 -3477 -3301 -3298 -3337
157 102 97 136 169 155 139 151 135 145 106 93 106 103 130 99 133 83 73 75 67 41 28 24 27 42 32 37 50 47 42 36 39 40 40 40 38 38 37 34 29 30 31 34 39 34 29 35 33 25 10 19 15 14 31 21 21 19 9 13 14 7 2 9 6 9 10 16 17 17 5 2 -2 -9 -12 -15 -16 -16 -16 -17 -18 -19 -19 -20 -18 -18 -18 -16 -11 -10 -16 -20 -26 -32 -36 -37 -37 -39 -43 -45 -52 -59 -76 -119 -174 -269 -415 -572 -1518 -1861 -2160 -2531 -2610 -2741 -2824 -2906 -2929 -2886 -2980 -3087 -3070 -3108 -3137 -3184 -3249 -3457 -3399 -3354 -3368
104 112 112 110 107 165 152 140 111 109 120 98 72 134 115 79 117 127 72 65 55 51 28 25 22 37 41 43 41 47 39 38 40 41 43 33 41 36 38 38 31 30 30 36 36 31 24 26 32 34 22 13 10 13 9 14 13 14 13 14 19 8 4 8 9 11 14 16 9 2 -2 -9 -11 -12 -14 -16 -17 -17 -18 -19 -21 -21 -20 -21 -21 -20 -19 -17 -15 -5 -16 -16 -25 -33 -37 -38 -39 -41 -44 -55 -60 -76 -115 -164 -230 -649 -294 -1549 -2215 -2376 -2558 -2644 -2723 -2813 -2930 -2958 -2950 -2963 -2980 -3030 -3172 -3170 -3192 -3241 -3297 -3350 -3607 -3410 -3411
112 71 93 82 118 129 129 112 125 104 117 118 73 120 112 95 117 105 68 63 58 56 36 20 20 21 38 43 39 38 37 34 33 37 40 34 31 45 40 35 37 36 36 29 22 20 30 32 39 25 22 19 11 9 4 3 2 11 4 13 21 9 1 4 10 15 13 4 -4 -11 -12 -12 -13 -15 -15 -17 -18 -20 -21 -21 -23 -23 -22 -23 -24 -22 -21 -20 -16 -12 -13 -14 -25 -32 -34 -37 -41 -43 -49 -58 -77 -111 -165 -228 -286 -542 -1272 -2133 -2569 -2613 -2668 -2744 -2829 -2901 -2937 -2962 -2992 -3010 -3037 -3049 -3108 -3182 -3281 -3293 -3350 -3393 -3592 -3472 -3475
86 89 82 73 80 97 109 122 130 111 109 73 80 84 107 76 81 56 55 56 54 46 54 35 22 25 24 40 30 29 29 30 30 30 30 30 32 31 40 30 30 34 32 29 23 20 25 34 21 21 23 23 20 10 3 5 4 -2 9 4 4 11 2 5 12 8 -2 -12 -12 -13 -14 -15 -16 -17 -18 -19 -20 -22 -22 -23 -24 -24 -25 -26 -25 -25 -25 -19 -15 -13 -19 -22 -19 -34 -27 -36 -43 -48 -58 -63 -100 -161 -227 -277 -442 -911 -1708 -2440 -2595 -2662 -2794 -2850 -2916 -2996 -2993 -3011 -3006 -3050 -3105 -3097 -3124 -3182 -3270 -3426 -3402 -3450 -3599 -3521 -3531
141 158 150 120 101 71 103 97 97 84 113 114 84 65 89 86 69 64 61 57 51 49 48 49 34 20 21 15 21 29 30 30 20 30 31 30 22 22 23 30 31 29 34 30 20 16 25 19 21 15 18 19 21 17 9 18 16 4 -2 -12 7 6 14 15 7 -2 -12 -13 -14 -15 -15 -16 -18 -18 -20 -21 -22 -23 -25 -26 -27 -24 -25 -27 -28 -28 -27 -26 -26 -26 -26 -24 -27 -29 -25 -37 -48 -57 -62 -85 -165 -227 -274 -427 -531 -1305 -1821 -2541 -2634 -2753 -2822 -2903 -3017 -3015 -3050 -3101 -3067 -3077 -3083 -3171 -3165 -3226 -3299 -3346 -3438 -3518 -3529 -3710 -3597
154 128 106 128 119 77 81 72 74 80 88 79 102 82 54 63 62 63 57 54 50 47 34 44 40 21 15 16 21 22 23 33 30 30 19 31 15 17 23 30 36 30 34 22 29 14 23 14 12 12 17 18 15 12 16 20 13 18 5 5 7 10 11 2 -2 -13 -13 -14 -15 -19 -18 -18 -20 -21 -22 -22 -24 -24 -26 -27 -28 -27 -28 -26 -28 -30 -30 -27 -30 -29 -30 -31 -30 -33 -34 -34 -57 -66 -81 -153 -212 -305 -385 -368 -954 -1257 -1989 -2626 -2713 -2791 -2863 -2957 -3037 -3052 -3074 -3127 -3161 -3147 -3173 -3181 -3278 -3300 -3326 -3379 -3444 -3502 -3640 -3600 -3848
128 119 95 80 67 63 48 50 74 90 96 78 89 85 57 60 58 57 52 52 50 47 39 41 36 28 15 14 15 21 18 30 31 30 30 23 13 22 33 30 36 37 32 30 22 17 15 14 17 14 16 17 22 20 15 19 11 17 4 -1 7 10 6 -3 -12 -13 -15 -17 -18 -19 -21 -21 -21 -23 -24 -25 -25 -26 -27 -28 -29 -30 -29 -29 -31 -30 -30 -32 -32 -31 -29 -32 -33 -32 -32 -54 -63 -80 -161 -227 -284 -325 -428 -637 -1053 -1419 -2118 -2653 -2737 -2819 -2908 -2923 -3010 -3029 -3103 -3161 -3199 -3222 -3224 -3244 -3289 -3376 -3426 -3423 -3474 -3528 -3584 -3696 -3695
132 108 83 104 88 74 49 48 83 83 101 76 68 62 60 47 55 51 47 49 44 45 37 45 36 24 24 29 14 18 18 26 28 30 24 15 19 21 30 27 30 27 31 23 22 19 16 14 12 15 18 19 19 23 17 9 14 7 9 -1 16 7 -2 -12 -16 -14 -15 -19 -18 -18 -20 -21 -24 -24 -26 -26 -28 -28 -29 -29 -30 -31 -31 -32 -33 -33 -33 -31 -32 -32 -32 -32 -35 -39 -42 -67 -90 -157 -237 -299 -338 -478 -555 -688 -1104 -1547 -2273 -2735 -2787 -2864 -2904 -2977 -3019 -3042 -3110 -3166 -3217 -3263 -3282 -3314 -3352 -3392 -3440 -3486 -3494 -3557 -3611 -3680 -3733
103 136 99 72 56 45 47 47 80 87 102 77 67 63 57 53 46 52 47 45 44 43 40 36 25 24 21 15 12 12 16 21 23 29 12 15 23 23 27 27 27 33 21 19 18 18 12 12 12 16 14 16 19 19 21 14 15 10 3 -2 4 7 -11 -13 -15 -18 -18 -18 -19 -19 -21 -24 -26 -26 -28 -27 -28 -29 -30 -32 -31 -31 -32 -34 -34 -36 -35 -36 -36 -36 -38 -40 -41 -43 -55 -93 -157 -240 -317 -364 -385 -541 -603 -838 -1202 -1717 -2317 -2782 -2846 -2917 -2932 -2952 -3005 -3049 -3126 -3176 -3203 -3263 -3331 -3385 -3406 -3452 -3489 -3543 -3574 -3585 -3631 -3677 -3750
95 103 111 91 92 57 42 46 61 77 94 70 55 49 53 52 49 41 48 42 43 39 40 38 32 24 24 30 11 11 15 16 17 12 12 15 14 17 23 26 30 34 31 22 12 16 15 9 12 13 12 16 17 19 18 15 16 8 16 11 -2 -2 -13 -13 -14 -19 -18 -20 -20 -22 -24 -25 -24 -25 -29 -30 -30 -30 -31 -32 -33 -34 -34 -35 -36 -36 -38 -38 -38 -39 -40 -42 -41 -55 -103 -164 -241 -320 -388 -420 -526 -570 -696 -984 -1307 -1973 -2629 -2813 -2892 -2932 -2946 -2979 -3007 -3070 -3135 -3183 -3223 -3290 -3348 -3410 -3476 -3555 -3587 -3625 -3700 -3660 -3675 -3715 -3754
72 103 126 91 98 67 39 41 47 67 73 55 52 47 48 44 49 47 43 41 41 31 38 26 23 36 30 24 15 10 12 12 15 12 15 30 30 30 33 30 32 33 31 15 12 12 9 3 10 12 20 19 16 9 10 6 14 16 14 8 -2 -7 -12 -14 -15 -17 -18 -19 -21 -22 -23 -26 -32 -30 -31 -31 -31 -33 -32 -34 -35 -34 -34 -35 -36 -37 -39 -43 -42 -41 -41 -43 -58 -107 -167 -242 -325 -397 -440 -469 -516 -624 -766 -1068 -1431 -2087 -2803 -2883 -2930 -2942 -2974 -3000 -3037 -3073 -3153 -3193 -3251 -3316 -3370 -3429 -3499 -3583 -3647 -3686 -3724 -3756 -3767 -3760 -3789
89 112 81 121 72 68 34 41 95 96 63 56 45 41 41 42 44 44 46 42 40 34 29 29 22 26 24 22 23 11 12 12 10 12 30 18 33 30 30 28 24 25 13 11 8 9 -2 5 10 15 14 9 10 13 13 12 11 14 10 5 -2 -10 -12 -16 -15 -17 -19 -20 -23 -25 -25 -26 -26 -27 -29 -30 -31 -31 -32 -32 -34 -34 -37 -36 -38 -39 -40 -40 -38 -41 -44 -83 -122 -207 -247 -311 -386 -426 -488 -496 -504 -694 -873 -1201 -1572 -2175 -2901 -2926 -2956 -2964 -2982 -3014 -3040 -3108 -3141 -3193 -3281 -3339 -3399 -3457 -3507 -3605 -3704 -3755 -3776 -3813 -3852 -3872 -3856
58 69 78 99 108 104 37 34 84 68 55 55 46 46 38 38 46 41 39 41 38 33 33 28 24 19 28 23 24 8 9 12 7 10 13 18 24 22 15 12 12 12 12 9 8 -5 -5 -3 6 6 13 5 -2 8 8 11 7 8 8 -6 -3 -11 -14 -15 -18 -19 -21 -23 -24 -25 -29 -29 -28 -30 -30 -29 -33 -32 -32 -34 -34 -36 -35 -38 -40 -41 -41 -40 -41 -48 -64 -123 -186 -247 -316 -393 -427 -433 -444 -518 -631 -802 -941 -1361 -1724 -2380 -2975 -2982 -2985 -2978 -3010 -3053 -3075 -3146 -3178 -3234 -3286 -3359 -3417 -3469 -3544 -3647 -3707 -3777 -3837 -3901 -3911 -3941 -3942
46 45 55 57 57 72 51 38 79 61 50 51 48 46 46 37 37 37 40 35 35 32 27 21 25 28 14 23 15 18 15 9 8 6 16 16 21 9 8 9 9 3 3 3 -2 -2 3 5 -3 -7 -2 -7 -9 -10 -10 -10 -10 -6 -2 -2 -8 -12 -15 -15 -18 -20 -22 -25 -25 -25 -26 -28 -30 -31 -30 -32 -31 -32 -36 -34 -36 -36 -38 -39 -41 -40 -42 -44 -53 -67 -135 -197 -252 -307 -391 -360 -492 -487 -469 -586 -728 -933 -1260 -1542 -1956 -2688 -2984 -3001 -3012 -3007 -3036 -3097 -3118 -3173 -3208 -3273 -3316 -3362 -3434 -3503 -3564 -3667 -3736 -3789 -3864 -3933 -3977 -4004 -4032
46 38 43 42 39 41 45 34 68 61 59 57 41 45 44 39 29 34 34 27 30 28 24 25 23 15 16 11 12 8 7 7 6 6 7 13 12 11 6 6 3 8 8 12 4 -4 -10 -5 -7 -10 -10 -11 -12 -11 -13 -12 -12 -10 -7 -4 -9 -12 -14 -17 -19 -22 -24 -25 -28 -26 -26 -27 -30 -33 -33 -34 -32 -34 -36 -36 -36 -38 -41 -41 -42 -42 -44 -56 -83 -153 -203 -234 -278 -393 -459 -501 -561 -648 -623 -664 -821 -1110 -1402 -1763 -2345 -2965 -2855 -3035 -3021 -3032 -3084 -3125 -3160 -3224 -3265 -3305 -3359 -3401 -3449 -3509 -3588 -3634 -3741 -3807 -3871 -3941 -4009 -4073 -4107
105 33 37 35 35 26 29 27 64 62 58 58 46 34 43 37 33 29 35 30 27 25 22 20 20 18 28 25 23 17 14 15 6 7 6 12 15 6 7 12 12 12 15 -2 -4 -9 -8 -10 -11 -12 -12 -14 -14 -14 -15 -14 -13 -14 -12 -8 -6 -11 -14 -18 -21 -21 -24 -25 -29 -29 -30 -28 -30 -34 -33 -34 -34 -36 -37 -38 -39 -41 -41 -41 -42 -48 -60 -108 -166 -208 -253 -244 -387 -425 -497 -517 -604 -634 -641 -760 -1007 -1239 -1620 -2179 -2802 -2941 -3040 -3058 -3051 -3080 -3119 -3140 -3198 -3247 -3297 -3342 -3386 -3444 -3493 -3538 -3588 -3639 -3705 -3821 -3891 -3974 -4019 -4091 -4154
98 98 105 51 81 65 35 26 64 62 56 55 51 43 27 35 30 26 25 24 22 25 21 27 23 15 16 17 15 22 23 8 18 8 6 6 12 6 5 12 12 6 -2 -8 -9 -10 -11 -12 -14 -14 -16 -15 -14 -16 -15 -14 -15 -15 -12 -11 -2 -12 -14 -18 -22 -22 -22 -28 -28 -29 -28 -28 -31 -32 -34 -35 -35 -34 -37 -40 -41 -41 -41 -41 -52 -67 -135 -178 -220 -255 -267 -400 -418 -489 -536 -599 -619 -644 -698 -862 -1105 -1459 -1968 -2670 -2903 -2997 -3069 -3084 -3089 -3116 -3147 -3174 -3248 -3290 -3335 -3385 -3428 -3484 -3525 -3563 -3613 -3656 -3717 -3784 -3854 -3969 -4028 -4109 -4160
107 96 90 92 81 79 57 24 27 47 57 48 48 49 41 29 28 33 23 26 20 17 26 20 26 21 18 21 13 18 18 15 8 9 3 3 6 5 4 6 6 -6 -8 -8 -11 -11 -13 -14 -15 -16 -17 -17 -17 -16 -17 -16 -15 -15 -14 -13 -9 -7 -13 -14 -20 -22 -24 -26 -28 -29 -31 -28 -27 -33 -32 -34 -35 -34 -38 -40 -41 -41 -44 -58 -99 -150 -186 -220 -242 -280 -453 -467 -477 -506 -600 -624 -626 -679 -788 -1000 -1350 -1714 -2412 -2870 -2942 -3030 -3097 -3101 -3114 -3143 -3182 -3218 -3289 -3329 -3372 -3421 -3462 -3499 -3562 -3598 -3648 -3687 -3742 -3807 -3879 -3932 -4027 -4109 -4176
109 97 90 95 66 62 65 47 25 29 37 44 50 48 37 38 44 33 22 22 18 16 14 17 22 24 24 22 21 19 15 9 12 9 9 8 5 6 6 8 -5 -8 -9 -12 -12 -14 -15 -16 -16 -16 -18 -19 -18 -18 -18 -18 -17 -16 -16 -13 -15 -8 -8 -8 -14 -20 -23 -25 -26 -27 -32 -31 -31 -32 -34 -32 -35 -38 -38 -39 -43 -53 -74 -124 -158 -191 -225 -267 -317 -378 -465 -473 -470 -525 -603 -619 -667 -750 -891 -1182 -1541 -2099 -2674 -2889 -2974 -3043 -3117 -3119 -3138 -3179 -3215 -3272 -3319 -3369 -3412 -3457 -3507 -3556 -3604 -3630 -3669 -3725 -3771 -3830 -3877 -3951 -4014 -4062 -4172
86 67 98 81 66 57 51 48 23 24 29 35 41 39 33 34 38 28 22 20 23 21 19 13 15 18 20 18 17 17 12 21 13 6 6 6 3 6 7 -5 -8 -10 -11 -12 -13 -14 -15 -18 -17 -19 -20 -19 -20 -20 -19 -20 -18 -18 -18 -17 -21 -19 -17 -11 -12 -12 -18 -24 -25 -27 -33 -28 -30 -32 -35 -37 -37 -38 -38 -39 -55 -93 -129 -161 -194 -229 -256 -318 -364 -421 -474 -490 -512 -550 -614 -658 -720 -830 -1093 -1388 -1843 -2423 -2821 -2926 -3006 -3077 -3126 -3133 -3154 -3202 -3235 -3306 -3355 -3405 -3457 -3502 -3554 -3591 -3631 -3664 -3712 -3758 -3806 -3855 -3919 -3971 -4021 -4077 -4140
69 59 92 66 54 51 51 51 49 23 25 26 27 30 28 36 34 17 21 26 26 23 24 23 20 19 11 12 17 18 11 5 14 12 6 3 7 7 -2 -8 -9 -10 -12 -12 -13 -14 -18 -18 -17 -19 -21 -21 -21 -22 -21 -20 -21 -20 -21 -22 -24 -24 -23 -20 -16 -18 -12 -16 -26 -27 -31 -31 -32 -34 -37 -37 -40 -39 -40 -43 -90 -130 -167 -206 -217 -246 -298 -363 -418 -463 -511 -556 -585 -613 -658 -699 -748 -955 -1297 -1573 -2164 -2673 -2855 -2947 -3011 -3103 -3154 -3147 -3175 -3218 -3268 -3349 -3406 -3452 -3497 -3542 -3584 -3636 -3667 -3704 -3742 -3796 -3848 -3898 -3944 -3995 -4041 -4093 -4148
81 51 64 57 52 46 46 52 49 42 23 32 23 23 23 22 17 19 13 14 18 26 23 20 23 22 15 10 6 15 16 10 14 6 8 2 6 -2 -7 -8 -10 -11 -13 -13 -15 -17 -18 -19 -19 -21 -21 -24 -22 -22 -24 -22 -22 -24 -23 -24 -26 -26 -26 -25 -24 -21 -19 -18 -17 -26 -30 -30 -33 -37 -38 -39 -42 -42 -44 -62 -129 -179 -210 -226 -263 -297 -366 -411 -460 -473 -531 -570 -604 -643 -685 -723 -813 -1057 -1395 -1850 -2379 -2748 -2875 -2963 -3020 -3061 -3206 -3177 -3209 -3243 -3322 -3377 -3432 -3476 -3527 -3574 -3633 -3667 -3696 -3743 -3787 -3838 -3880 -3928 -3992 -4028 -4062 -4128 -4169
76 55 60 58 51 52 43 46 39 42 40 28 23 23 23 23 21 23 26 29 15 12 18 21 23 18 13 17 11 11 13 10 10 6 2 7 5 -7 -8 -8 -10 -13 -11 -15 -17 -18 -19 -19 -19 -21 -22 -23 -23 -24 -25 -25 -24 -25 -24 -27 -28 -27 -26 -27 -27 -26 -24 -22 -23 -22 -28 -32 -34 -40 -40 -40 -43 -49 -88 -152 -196 -227 -241 -232 -313 -379 -426 -457 -495 -528 -574 -591 -667 -680 -689 -783 -1003 -1247 -1568 -2120 -2539 -2794 -2899 -2992 -3080 -3206 -3194 -3203 -3251 -3296 -3363 -3426 -3452 -3512 -3560 -3612 -3660 -3693 -3734 -3777 -3818 -3866 -3922 -3976 -4018 -4062 -4112 -4157 -4207
55 49 55 54 51 48 44 34 32 34 37 38 32 27 29 26 30 21 21 28 25 24 12 10 16 17 13 17 19 12 9 5 5 2 -1 13 -6 -9 -11 -10 -11 -12 -15 -14 -15 -16 -20 -20 -23 -24 -24 -25 -24 -25 -26 -27 -26 -26 -26 -27 -29 -29 -30 -28 -27 -26 -23 -23 -25 -26 -24 -27 -31 -40 -42 -45 -75 -132 -162 -198 -227 -237 -248 -323 -368 -417 -452 -490 -528 -570 -587 -643 -680 -686 -741 -836 -1101 -1391 -1775 -2274 -2645 -2819 -2916 -3011 -3111 -3194 -3200 -3231 -3298 -3350 -3433 -3493 -3504 -3535 -3564 -3633 -3680 -3715 -3750 -3798 -3853 -3907 -3953 -4006 -4049 -4104 -4145 -4191 -4233
51 45 50 50 50 45 34 33 32 27 34 32 28 31 33 34 24 21 21 25 18 20 18 13 6 16 10 16 13 16 6 6 9 -3 11 -3 -7 -9 -10 -12 -14 -13 -13 -16 -16 -18 -19 -20 -22 -23 -26 -25 -26 -27 -27 -28 -28 -28 -29 -29 -30 -31 -31 -29 -29 -27 -29 -28 -26 -25 -26 -29 -34 -39 -58 -101 -130 -162 -225 -220 -242 -250 -324 -352 -399 -452 -479 -529 -561 -586 -631 -670 -703 -762 -849 -960 -1238 -1553 -2014 -2352 -2696 -2829 -2925 -3022 -3126 -3199 -3226 -3296 -3341 -3394 -3464 -3489 -3542 -3594 -3606 -3641 -3674 -3726 -3779 -3832 -3884 -3933 -3994 -4040 -4077 -4137 -4181 -4221 -4260
41 43 46 48 43 43 36 35 29 23 28 30 30 30 35 31 21 21 21 21 19 15 15 17 17 15 16 8 8 10 8 8 11 -3 -11 -3 -9 -12 -13 -12 -13 -14 -15 -16 -17 -18 -20 -21 -22 -24 -25 -26 -28 -26 -28 -28 -30 -30 -32 -31 -30 -31 -31 -32 -31 -30 -31 -34 -37 -36 -38 -37 -41 -64 -101 -132 -172 -197 -212 -237 -284 -313 -346 -405 -442 -460 -522 -557 -580 -626 -665 -697 -754 -822 -886 -1132 -1364 -1701 -2095 -2448 -2716 -2853 -2950 -3038 -3140 -3213 -3280 -3306 -3323 -3427 -3474 -3536 -3599 -3619 -3652 -3677 -3711 -3757 -3798 -3848 -3912 -3969 -4014 -4062 -4120 -4159 -4207 -4243 -4288
45 39 37 44 47 41 36 29 31 31 18 29 31 35 38 29 24 21 24 11 10 15 20 21 19 15 13 5 12 6 7 9 15 3 -6 -4 -8 -10 -12 -12 -14 -15 -16 -17 -16 -18 -20 -22 -23 -25 -27 -28 -28 -29 -27 -29 -31 -31 -33 -32 -32 -33 -35 -35 -35 -36 -40 -42 -43 -42 -45 -61 -66 -72 -135 -186 -210 -216 -220 -299 -337 -358 -400 -438 -467 -518 -549 -580 -621 -662 -696 -726 -790 -845 -1008 -1220 -1497 -1902 -2193 -2516 -2731 -2873 -2974 -3046 -3139 -3226 -3279 -3325 -3371 -3437 -3503 -3563 -3615 -3652 -3689 -3723 -3758 -3799 -3834 -3888 -3935 -3987 -4040 -4099 -4147 -4200 -4234 -4266 -4321
46 47 43 35 41 37 28 34 25 27 32 34 35 26 27 23 21 27 23 10 18 16 19 14 11 13 12 16 14 15 12 -2 -3 -3 -6 -2 -6 -10 -11 -13 -15 -16 -18 -19 -19 -20 -20 -22 -24 -26 -28 -28 -30 -32 -32 -31 -32 -33 -32 -33 -33 -35 -36 -36 -41 -44 -46 -46 -49 -59 -76 -98 -139 -179 -204 -217 -226 -239 -332 -363 -394 -414 -433 -473 -519 -544 -575 -622 -658 -701 -729 -766 -808 -882 -1111 -1336 -1685 -1981 -2279 -2546 -2722 -2858 -2996 -3056 -3165 -3237 -3278 -3356 -3393 -3475 -3548 -3614 -3663 -3693 -3725 -3759 -3806 -3841 -3876 -3917 -3978 -4015 -4058 -4118 -4173 -4219 -4254 -4305 -4355
37 47 42 39 29 26 32 25 28 32 39 34 24 28 25 27 30 26 12 -2 13 18 9 12 10 13 18 11 10 18 13 9 -3 -2 -2 -6 -8 -11 -11 -11 -14 -16 -17 -18 -20 -21 -22 -22 -23 -25 -24 -28 -30 -31 -33 -32 -33 -33 -34 -36 -37 -40 -41 -51 -54 -57 -72 -94 -118 -135 -156 -185 -221 -233 -240 -245 -310 -332 -439 -464 -443 -446 -475 -517 -542 -584 -611 -658 -691 -716 -762 -805 -868 -986 -1199 -1453 -1766 -2061 -2353 -2596 -2758 -2873 -2980 -3088 -3177 -3256 -3355 -3453 -3536 -3618 -3675 -3723 -3778 -3830 -3834 -3845 -3836 -3874 -3923 -3962 -4006 -4044 -4110 -4153 -4198 -4245 -4284 -4339 -4383
28 37 37 36 35 33 26 25 25 35 30 19 24 17 24 23 27 20 10 11 7 9 5 12 13 15 13 10 10 9 2 -2 -2 -3 -5 -7 -8 -12 -13 -13 -13 -16 -19 -20 -23 -24 -24 -25 -24 -24 -27 -29 -29 -32 -33 -34 -33 -35 -35 -44 -34 -50 -78 -93 -109 -124 -136 -152 -175 -200 -234 -244 -264 -271 -281 -278 -333 -351 -427 -430 -457 -555 -524 -541 -576 -625 -635 -676 -695 -753 -791 -849 -951 -1118 -1338 -1583 -1862 -2137 -2438 -2645 -2766 -2843 -2986 -3096 -3177 -3308 -3378 -3470 -3539 -3631 -3682 -3729 -3793 -3857 -3896 -3935 -3990 -4004 -3983 -3993 -4036 -4095 -4149 -4193 -4240 -4282 -4325 -4382 -4422
31 27 37 30 31 31 31 35 30 24 21 26 23 20 21 27 24 14 15 11 -2 9 12 15 15 11 7 9 -2 -4 -2 -3 -2 -7 -8 -10 -8 -14 -12 -15 -14 -16 -19 -22 -22 -26 -28 -30 -30 -32 -32 -31 -32 -30 -32 -32 -33 -38 -41 -45 -99 -155 -120 -131 -144 -158 -177 -205 -239 -239 -245 -257 -288 -303 -322 -312 -295 -369 -420 -429 -486 -519 -598 -587 -624 -650 -655 -705 -737 -774 -828 -902 -1020 -1231 -1477 -1704 -1938 -2178 -2491 -2646 -2777 -2892 -3017 -3084 -3186 -3253 -3398 -3455 -3512 -3599 -3672 -3737 -3795 -3855 -3902 -3952 -3983 -4028 -4070 -4114 -4160 -4168 -4213 -4256 -4280 -4316 -4381 -4415 -4463
27 20 29 30 31 32 25 41 26 22 14 21 22 13 23 23 23 8 12 3 4 5 10 17 8 9 9 -2 -2 -2 -3 -3 -3 -8 -11 -14 -10 -19 -20 -17 -15 -15 -25 -27 -27 -27 -28 -29 -29 -29 -34 -35 -34 -28 -30 -33 -41 -46 -55 -88 -120 -143 -144 -155 -174 -199 -225 -245 -239 -249 -273 -290 -304 -309 -332 -349 -366 -413 -440 -470 -513 -538 -588 -647 -656 -683 -704 -740 -776 -820 -882 -973 -1147 -1346 -1572 -1764 -1972 -2205 -2512 -2640 -2600 -2876 -2986 -3078 -3152 -3243 -3324 -3421 -3467 -3588 -3658 -3751 -3804 -3860 -3917 -3973 -4030 -4063 -4093 -4130 -4187 -4233 -4271 -4297 -4324 -4356 -4415 -4460 -4501
30 22 30 33 25 28 36 18 16 19 14 13 13 9 12 15 11 7 5 1 1 22 10 2 5 7 -2 -3 -3 -6 -7 -8 -10 -9 -14 -16 -17 -20 -22 -24 -24 -25 -26 -27 -28 -31 -32 -34 -35 -37 -38 -38 -37 -36 -41 -47 -62 -91 -118 -130 -140 -153 -172 -196 -213 -237 -246 -251 -263 -277 -287 -293 -311 -341 -360 -377 -391 -444 -487 -515 -542 -571 -621 -645 -666 -722 -735 -764 -808 -856 -939 -1077 -1273 -1481 -1650 -1812 -2019 -2219 -2502 -2611 -2756 -2914 -2992 -3076 -3165 -3238 -3314 -3376 -3444 -3541 -3632 -3711 -3777 -3849 -3908 -3976 -4048 -4100 -4151 -4175 -4213 -4263 -4319 -4344 -4365 -4413 -4458 -4529 -4558
26 20 32 31 34 23 21 11 15 9 12 13 16 13 13 14 18 1 9 10 9 -2 5 7 7 -2 1 -2 -7 -11 -11 -11 -13 -12 -14 -17 -20 -22 -22 -25 -26 -27 -27 -28 -31 -32 -34 -37 -38 -40 -41 -41 -38 -42 -67 -90 -110 -124 -141 -157 -175 -187 -204 -226 -253 -255 -265 -270 -279 -283 -301 -324 -343 -369 -386 -405 -418 -467 -525 -554 -585 -596 -647 -673 -686 -734 -758 -814 -849 -916 -1018 -1202 -1418 -1604 -1728 -1900 -2030 -2222 -2458 -2608 -2704 -2886 -2998 -3120 -3233 -3258 -3315 -3390 -3462 -3544 -3616 -3691 -3777 -3836 -3898 -3979 -4043 -4097 -4156 -4221 -4268 -4295 -4333 -4386 -4424 -4455 -4504 -4534 -4562
25 13 34 28 26 15 18 10 10 12 11 17 16 14 12 5 8 5 -2 -2 -16 6 6 1 -2 -5 -6 -6 -10 -11 -12 -14 -14 -14 -16 -18 -21 -21 -23 -26 -28 -28 -30 -31 -33 -33 -34 -36 -73 -38 -123 -47 -40 -46 -109 -120 -150 -204 -179 -258 -190 -204 -220 -265 -266 -261 -279 -281 -295 -312 -334 -359 -378 -396 -416 -430 -483 -509 -544 -576 -605 -636 -662 -690 -722 -747 -786 -836 -897 -969 -1134 -1333 -1557 -1705 -1787 -1901 -2049 -2231 -2436 -2614 -2703 -2881 -3000 -3105 -3253 -3267 -3331 -3398 -3458 -3546 -3626 -3696 -3761 -3830 -3912 -3993 -4040 -4098 -4133 -4198 -4259 -4335 -4359 -4399 -4449 -4501 -4538 -4566 -4595
26 14 24 28 15 14 11 11 9 16 9 11 10 9 16 -2 1 -2 6 4 6 5 -2 1 -3 -8 -9 -10 -11 -13 -14 -16 -18 -20 -20 -20 -23 -23 -24 -25 -28 -31 -57 -33 -34 -33 -34 -37 -37 -41 -42 -42 -52 -123 -163 -177 -161 -186 -219 -234 -234 -248 -240 -253 -278 -285 -289 -305 -326 -349 -370 -390 -409 -425 -439 -484 -516 -552 -581 -610 -642 -659 -697 -726 -751 -782 -825 -868 -929 -1049 -1241 -1457 -1673 -1809 -1878 -1945 -2078 -2255 -2462 -2615 -2713 -2877 -3037 -3137 -3248 -3265 -3330 -3402 -3488 -3559 -3631 -3729 -3790 -3854 -3894 -3951 -4039 -4100 -4175 -4240 -4277 -4317 -4355 -4418 -4481 -4520 -4544 -4585 -4621
28 19 20 8 9 13 11 16 8 3 6 9 18 12 14 10 8 10 11 5 10 -2 -3 -6 -8 -12 -11 -12 -12 -13 -14 -16 -18 -21 -19 -19 -43 -37 -22 -27 -29 -32 -33 -34 -34 -34 -33 -36 -42 -57 -76 -120 -162 -173 -179 -176 -191 -206 -248 -266 -281 -268 -270 -283 -296 -310 -324 -344 -368 -388 -419 -427 -439 -462 -479 -509 -544 -572 -604 -635 -657 -693 -720 -742 -787 -811 -865 -938 -990 -1151 -1354 -1588 -1777 -1863 -1930 -1996 -2110 -2247 -2442 -2598 -2729 -2864 -3008 -3150 -3241 -3263 -3337 -3392 -3470 -3545 -3641 -3722 -3789 -3854 -3925 -3989 -4040 -4117 -4192 -4241 -4291 -4361 -4394 -4426 -4462 -4494 -4535 -4591 -4618
30 19 11 5 8 3 11 17 6 4 -1 16 3 9 4 11 10 8 10 2 1 -2 -6 -8 -15 -13 -12 -13 -14 -15 -15 -17 -19 -23 -22 -27 -27 -28 -28 -30 -32 -32 -33 -36 -37 -36 -36 -43 -67 -113 -140 -171 -167 -175 -190 -207 -211 -234 -267 -245 -261 -296 -318 -328 -335 -351 -367 -390 -419 -454 -455 -465 -468 -488 -519 -542 -563 -598 -638 -665 -698 -721 -754 -772 -807 -836 -906 -963 -1065 -1265 -1472 -1710 -1874 -1944 -1998 -2040 -2146 -2251 -2425 -2577 -2740 -2857 -2991 -3103 -3211 -3286 -3352 -3404 -3479 -3559 -3641 -3716 -3787 -3848 -3915 -3972 -4037 -4098 -4154 -4219 -4271 -4303 -4386 -4447 -4481 -4506 -4526 -4557 -4582
15 12 8 12 10 7 14 2 1 2 -3 4 -2 1 11 9 4 4 -7 -2 -4 -6 -10 -11 -11 -14 -16 -17 -16 -16 -18 -18 -22 -25 -29 -26 -24 -28 -28 -32 -32 -33 -37 -41 -41 -40 -39 -52 -125 -160 -183 -178 -192 -195 -214 -222 -232 -248 -261 -291 -270 -306 -298 -322 -344 -380 -392 -407 -416 -434 -468 -499 -507 -521 -547 -568 -599 -637 -657 -693 -712 -749 -785 -799 -840 -868 -944 -1022 -1169 -1390 -1614 -1827 -1959 -2029 -2050 -2087 -2162 -2254 -2397 -2553 -2711 -2844 -2978 -3094 -3198 -3290 -3353 -3431 -3501 -3574 -3652 -3721 -3801 -3870 -3923 -3977 -4039 -4094 -4161 -4232 -4300 -4349 -4405 -4442 -4476 -4507 -4547 -4562 -4594
9 8 5 4 12 6 -2 9 2 4 1 11 3 13 1 2 4 -4 -4 -2 -9 -10 -11 -14 -13 -15 -15 -18 -18 -22 -20 -24 -27 -29 -32 -33 -35 -33 -33 -34 -38 -38 -41 -40 -42 -43 -44 -53 -171 -197 -192 -205 -196 -216 -238 -246 -257 -259 -278 -273 -300 -313 -320 -345 -369 -373 -430 -441 -441 -458 -491 -509 -529 -556 -578 -601 -635 -655 -694 -718 -758 -766 -790 -823 -895 -907 -981 -1111 -1312 -1500 -1762 -1935 -2063 -2103 -2107 -2133 -2204 -2270 -2388 -2537 -2681 -2840 -2961 -3087 -3197 -3291 -3350 -3435 -3489 -3567 -3650 -3726 -3785 -3872 -3934 -4003 -4055 -4119 -4157 -4197 -4275 -4355 -4420 -4463 -4519 -4544 -4544 -4570 -4608
11 4 13 8 -3 4 4 -3 1 1 6 -5 2 9 -2 -2 -2 -8 -10 -10 -12 -13 -13 -15 -15 -15 -18 -18 -19 -19 -22 -26 -28 -31 -33 -35 -36 -35 -33 -37 -37 -38 -42 -45 -50 -54 -89 -182 -224 -214 -206 -270 -235 -258 -270 -275 -268 -282 -290 -301 -318 -336 -352 -364 -381 -397 -422 -442 -436 -480 -503 -552 -593 -599 -620 -652 -657 -690 -707 -735 -777 -799 -817 -866 -918 -947 -1035 -1227 -1411 -1640 -1920 -2053 -2135 -2136 -2143 -2169 -2226 -2289 -2393 -2517 -2653 -2811 -2942 -3070 -3183 -3284 -3356 -3418 -3478 -3554 -3632 -3724 -3804 -3856 -3929 -4000 -4061 -4116 -4181 -4218 -4260 -4314 -4369 -4411 -4460 -4540 -4581 -4615 -4641
21 11 1 17 17 6 15 -3 -2 -9 -2 1 9 -4 -8 -9 -10 -9 -10 -10 -13 -14 -16 -16 -17 -19 -21 -18 -17 -21 -22 -26 -31 -33 -35 -38 -38 -37 -34 -39 -46 -54 -54 -81 -124 -171 -240 -246 -243 -252 -217 -248 -234 -256 -278 -301 -298 -305 -317 -333 -347 -358 -373 -385 -392 -408 -432 -454 -482 -506 -542 -582 -615 -625 -648 -663 -702 -715 -742 -768 -795 -821 -835 -910 -953 -996 -1082 -1342 -1599 -1877 -2070 -2160 -2167 -2172 -2182 -2190 -2250 -2316 -2394 -2506 -2638 -2774 -2917 -3046 -3170 -3271 -3350 -3404 -3446 -3525 -3601 -3697 -3779 -3850 -3929 -4011 -4089 -4145 -4183 -4232 -4288 -4316 -4367 -4411 -4453 -4483 -4527 -4593 -4616
15 6 5 16 12 12 12 12 2 3 -5 -7 -3 -6 -10 -9 -11 -12 -12 -13 -14 -15 -16 -17 -18 -20 -22 -23 -23 -20 -23 -28 -31 -35 -38 -40 -41 -40 -43 -47 -62 -81 -106 -136 -173 -271 -264 -264 -264 -265 -254 -274 -265 -279 -300 -324 -336 -341 -350 -365 -378 -389 -401 -417 -434 -453 -480 -497 -524 -569 -600 -640 -673 -682 -685 -708 -749 -746 -769 -784 -812 -850 -892 -942 -1005 -1097 -1263 -1518 -1912 -2089 -2162 -2208 -2201 -2225 -2224 -2213 -2265 -2329 -2404 -2502 -2620 -2751 -2888 -3023 -3151 -3262 -3342 -3368 -3422 -3496 -3581 -3675 -3771 -3864 -3936 -4023 -4107 -4165 -4208 -4241 -4281 -4323 -4375 -4412 -4444 -4480 -4519 -4541 -4570
13 2 -2 -10 5 7 1 12 8 -6 2 -4 -3 -10 -12 -13 -12 -12 -13 -15 -15 -18 -17 -19 -19 -21 -24 -25 -24 -25 -26 -29 -33 -37 -39 -40 -40 -45 -53 -67 -84 -110 -137 -174 -248 -315 -294 -287 -287 -288 -289 -285 -296 -306 -341 -368 -381 -379 -387 -388 -402 -419 -431 -446 -466 -487 -502 -539 -571 -591 -633 -669 -694 -718 -739 -748 -768 -797 -804 -827 -849 -897 -943 -993 -1093 -1236 -1444 -1830 -2088 -2174 -2219 -2234 -2247 -2265 -2269 -2257 -2259 -2334 -2404 -2490 -2605 -2719 -2855 -2992 -3117 -3251 -3341 -3372 -3420 -3495 -3574 -3677 -3767 -3849 -3933 -4024 -4102 -4163 -4211 -4259 -4307 -4349 -4376 -4418 -4453 -4492 -4515 -4542 -4574
8 7 18 -5 -7 1 9 1 2 1 -3 -5 -7 -10 -13 -14 -14 -14 -17 -14 -18 -19 -20 -20 -23 -22 -26 -27 -28 -27 -26 -28 -36 -42 -43 -44 -45 -54 -68 -87 -110 -137 -167 -240 -337 -364 -308 -315 -323 -293 -290 -312 -323 -333 -356 -420 -414 -397 -403 -409 -429 -444 -455 -463 -496 -511 -552 -567 -590 -614 -655 -669 -720 -756 -767 -781 -809 -822 -839 -873 -891 -895 -962 -1063 -1199 -1400 -1680 -2011 -2170 -2220 -2247 -2271 -2293 -2304 -2307 -2304 -2313 -2317 -2389 -2470 -2568 -2680 -2805 -2947 -3078 -3197 -3316 -3401 -3426 -3493 -3581 -3693 -3765 -3855 -3943 -4011 -4085 -4150 -4206 -4267 -4309 -4362 -4380 -4427 -4472 -4499 -4521 -4550 -4586
11 17 -2 -2 -2 -4 -4 -5 -3 -3 -7 -11 -13 -14 -16 -12 -18 -18 -17 -17 -19 -21 -21 -20 -25 -27 -28 -27 -30 -30 -32 -36 -40 -42 -43 -46 -59 -67 -88 -108 -137 -171 -236 -292 -307 -313 -351 -349 -391 -329 -299 -301 -345 -359 -383 -415 -427 -426 -417 -408 -459 -478 -528 -503 -513 -534 -583 -586 -623 -609 -628 -676 -746 -777 -791 -809 -823 -839 -872 -890 -912 -946 -1045 -1175 -1368 -1704 -1994 -2166 -2236 -2271 -2294 -2301 -2324 -2349 -2359 -2361 -2359 -2358 -2371 -2454 -2539 -2624 -2748 -2883 -3020 -3124 -3275 -3364 -3465 -3502 -3586 -3678 -3768 -3863 -3922 -3995 -4072 -4111 -4192 -4258 -4317 -4353 -4403 -4451 -4487 -4501 -4527 -4570 -4588
15 12 13 3 13 1 -2 -3 -6 -8 -9 -11 -14 -14 -16 -17 -16 -17 -19 -20 -20 -22 -22 -25 -28 -29 -30 -31 -32 -34 -36 -38 -40 -42 -46 -57 -64 -84 -102 -130 -177 -234 -310 -308 -321 -393 -366 -350 -266 -322 -333 -361 -350 -378 -397 -431 -424 -424 -429 -491 -488 -502 -538 -526 -541 -563 -587 -603 -630 -639 -667 -734 -772 -813 -814 -819 -866 -883 -889 -916 -961 -1040 -1141 -1337 -1616 -1950 -2127 -2234 -2280 -2297 -2326 -2347 -2368 -2401 -2407 -2407 -2408 -2414 -2412 -2425 -2516 -2584 -2679 -2799 -2933 -3062 -3207 -3321 -3408 -3490 -3574 -3647 -3751 -3824 -3901 -3975 -4027 -4101 -4173 -4249 -4295 -4351 -4407 -4462 -4500 -4531 -4567 -4571 -4608
13 4 7 12 -2 -3 -2 -2 -8 -14 -13 -13 -14 -15 -16 -17 -19 -18 -19 -21 -23 -23 -24 -27 -28 -30 -34 -34 -36 -36 -39 -40 -40 -43 -56 -64 -81 -100 -122 -183 -247 -304 -313 -315 -412 -427 -418 -389 -372 -354 -346 -348 -360 -402 -443 -430 -426 -462 -477 -495 -512 -514 -524 -539 -558 -579 -610 -609 -650 -717 -742 -758 -785 -814 -806 -817 -899 -900 -895 -935 -1031 -1138 -1247 -1257 -1799 -2119 -2248 -2282 -2301 -2337 -2368 -2399 -2422 -2437 -2449 -2462 -2469 -2465 -2466 -2463 -2468 -2557 -2607 -2702 -2831 -3041 -3069 -3171 -3310 -3430 -3513 -3605 -3697 -3775 -3849 -3934 -4000 -4071 -4155 -4215 -4275 -4337 -4404 -4457 -4506 -4558 -4575 -4592 -4621
3 1 -14 10 -2 -2 -5 -5 -11 -12 -14 -16 -17 -19 -16 -17 -20 -19 -22 -21 -21 -23 -26 -28 -29 -32 -33 -36 -40 -40 -42 -40 -46 -57 -64 -81 -100 -123 -184 -244 -276 -304 -317 -350 -380 -389 -392 -392 -359 -340 -349 -368 -390 -428 -437 -461 -479 -487 -501 -515 -538 -529 -569 -567 -608 -690 -625 -666 -715 -774 -774 -788 -788 -789 -799 -841 -908 -911 -934 -980 -1088 -1268 -1419 -1680 -1816 -2159 -2281 -2315 -2351 -2374 -2421 -2456 -2470 -2479 -2496 -2511 -2508 -2507 -2504 -2498 -2484 -2531 -2569 -2629 -2726 -2830 -2967 -3076 -3174 -3257 -3399 -3517 -3616 -3713 -3797 -3863 -3943 -4026 -4101 -4163 -4235 -4305 -4369 -4431 -4504 -4551 -4591 -4629 -4640
1 4 -7 -5 -6 -3 -6 -14 -14 -16 -14 -17 -17 -19 -21 -19 -20 -22 -22 -25 -25 -25 -27 -30 -30 -33 -36 -40 -40 -39 -41 -48 -63 -72 -81 -100 -122 -174 -249 -268 -288 -309 -325 -328 -338 -369 -407 -413 -402 -371 -381 -397 -424 -434 -503 -519 -528 -550 -570 -586 -601 -578 -628 -661 -641 -638 -617 -676 -613 -666 -724 -787 -824 -918 -860 -860 -968 -937 -970 -1035 -1137 -1387 -1732 -1931 -2062 -2270 -2298 -2355 -2392 -2408 -2422 -2472 -2490 -2493 -2535 -2542 -2542 -2553 -2554 -2558 -2546 -2498 -2545 -2576 -2648 -2741 -2838 -2955 -3067 -3175 -3263 -3369 -3493 -3615 -3704 -3778 -3880 -3949 -4027 -4106 -4183 -4251 -4319 -4392 -4465 -4542 -4607 -4646 -4667
-2 -2 -5 -4 -10 -12 -14 -14 -13 -20 -20 -24 -19 -20 -21 -20 -23 -22 -24 -28 -27 -28 -27 -29 -30 -38 -43 -42 -42 -42 -52 -67 -75 -84 -97 -122 -160 -246 -251 -284 -308 -337 -360 -358 -351 -388 -422 -420 -414 -423 -420 -431 -448 -542 -537 -575 -603 -559 -613 -620 -615 -691 -702 -669 -664 -632 -748 -759 -718 -709 -799 -831 -822 -872 -830 -869 -1032 -1007 -1010 -1077 -1233 -1512 -1889 -2158 -2263 -2299 -2315 -2375 -2437 -2443 -2458 -2516 -2528 -2536 -2565 -2569 -2590 -2584 -2592 -2598 -2586 -2573 -2544 -2602 -2628 -2682 -2739 -2833 -2954 -3046 -3166 -3257 -3344 -3458 -3582 -3696 -3779 -3887 -3959 -4044 -4122 -4203 -4262 -4360 -4436 -4502 -4585 -4650 -4706
